200.989563 -39.979310 -20.996438
201.145099 -40.010248 -19.386313
202.265355 -40.233081 -17.861278
201.418940 -40.064718 -16.162574
204.472237 -40.672057 -14.761040
205.558484 -40.888125 -13.186009
207.612323 -41.296659 -11.649438
228.269281 -45.405583 -10.975803
255.787603 -50.879318 -10.246812
257.819248 -51.283437 -8.261030
255.913904 -50.904441 -6.149099
256.934042 -51.107359 -4.115317
258.919328 -51.502257 -2.073430
258.927314 -51.503845 0.000000
257.938573 -51.307172 2.065576
259.876035 -51.692557 4.162439
258.855444 -51.489549 6.219778
258.799549 -51.478431 8.292440
259.707720 -51.659077 10.403851
259.619569 -51.641543 12.483209
259.515403 -51.620823 14.561798
259.395230 -51.596919 16.639488
259.259056 -51.569833 18.716151
259.106889 -51.539565 20.791660
259.915867 -51.700480 22.952173
259.731050 -51.663718 25.032811
259.530212 -51.623769 27.111905
261.263090 -51.968460 29.408795
260.054509 -51.728058 31.382485
259.804749 -51.678378 33.463973
260.511020 -51.818864 35.676519
261.199170 -51.955745 37.902431
259.929266 -51.703146 39.844212
259.614330 -51.640501 41.924437
260.250855 -51.767114 44.166262
260.868796 -51.890030 46.420857
259.538344 -51.625387 48.328741
261.084890 -51.933013 50.780336
260.685677 -51.853605 52.869477
260.270383 -51.770998 54.955357
260.797851 -51.875918 57.248319
208.296476 -43.136126 -159.711780
214.244328 -44.367867 -161.600929
213.896132 -44.295759 -158.702018
218.296883 -45.207111 -159.307213
209.100376 -43.302606 -150.076371
210.248122 -43.540293 -148.394643
215.432380 -44.613901 -149.514179
218.203995 -45.187875 -148.892822
222.616124 -46.101583 -149.334206
227.870940 -47.189803 -150.256306
229.846276 -47.598875 -148.959849
233.477437 -48.350853 -148.699299
229.604292 -47.548763 -143.687105
228.185516 -47.254949 -140.293764
226.728863 -46.953290 -136.932141
226.081483 -46.819224 -134.104897
228.807040 -47.383660 -133.278382
233.242462 -48.302192 -133.393599
233.403061 -48.335450 -131.036999
235.265409 -48.721124 -129.635794
234.524339 -48.567656 -126.808980
233.754407 -48.408210 -124.002107
232.083381 -48.062158 -120.761473
226.873256 -46.983193 -115.767463
214.566057 -44.434494 -107.345157
211.854099 -43.872875 -103.889420
206.444358 -42.752571 -99.206575
206.311687 -42.725096 -97.129059
203.482448 -42.139189 -93.825274
203.302152 -42.101852 -91.785996
199.508351 -41.316193 -88.166832
199.278551 -41.268604 -86.174019
198.125777 -41.029876 -83.807672
197.856608 -40.974134 -81.840595
198.479919 -41.103215 -80.251152
198.177725 -41.040634 -78.295949
196.941749 -40.784675 -75.997091
197.520147 -40.904456 -74.415167
197.165029 -40.830915 -72.489915
197.716447 -40.945108 -70.906308
197.329242 -40.864921 -68.994410
198.782663 -41.165911 -67.726071
199.297394 -41.272506 -66.129637
199.799832 -41.376556 -64.529123
200.289945 -41.478054 -62.924630
201.705870 -41.771278 -61.602779
202.173419 -41.868102 -59.983088
203.570954 -42.157518 -58.631137
204.960108 -42.445198 -57.260452
204.447644 -42.339072 -55.358505
204.867085 -42.425934 -53.717016
206.224231 -42.706985 -52.313288
206.620197 -42.788986 -50.657644
207.003418 -42.868347 -48.998875
207.373870 -42.945064 -47.337083
207.731530 -43.019132 -45.672372
208.076377 -43.090546 -44.004843
207.447981 -42.960412 -42.139510
206.803788 -42.827006 -40.286983
206.143956 -42.690361 -38.447400
206.433286 -42.750278 -36.792827
206.709882 -42.807559 -35.135985
205.039394 -42.461617 -33.164107
205.288126 -42.513127 -31.518556
203.585287 -42.160486 -29.589259
203.806571 -42.206312 -27.955481
202.072280 -41.847157 -26.069313
203.238975 -42.088768 -24.565316
200.501704 -41.521907 -22.605268
199.695247 -41.354898 -20.894513
199.849782 -41.386900 -19.292204
200.967560 -41.618381 -17.774991
201.098064 -41.645407 -16.162574
203.169718 -42.074426 -14.690413
205.231013 -42.501300 -13.186009
206.303836 -42.723471 -11.594488
214.211729 -44.361117 -10.316313
239.724627 -49.644584 -9.618655
257.408521 -53.306742 -8.261030
255.506213 -52.912793 -6.149099
255.545624 -52.920955 -4.099610
258.506849 -53.534195 -2.073430
258.514822 -53.535846 0.000000
258.506849 -53.534195 2.073430
258.482930 -53.529241 4.146732
258.443066 -53.520986 6.219778
258.387261 -53.509429 8.292440
258.315516 -53.494572 10.364591
259.205974 -53.678977 12.483209
258.124231 -53.454959 14.506847
258.981993 -53.632592 16.639488
259.822813 -53.806718 18.786778
258.694111 -53.572975 20.791660
258.526230 -53.538208 22.865887
258.342401 -53.500139 24.938703
258.142637 -53.458770 27.009981
260.846876 -54.018791 29.408795
259.640221 -53.768905 31.382485
259.390859 -53.717265 33.463973
260.096005 -53.863293 35.676519
259.813605 -53.804811 37.761530
260.483518 -53.943543 39.992885
260.167910 -53.878184 42.080871
259.836254 -53.809501 44.166262
258.523928 -53.537732 46.076999
258.161589 -53.462695 48.149081
258.745204 -53.583556 50.405574
259.309976 -53.700514 52.674387
259.855752 -53.813539 54.955357
259.425091 -53.724354 57.037847
204.042406 -43.929181 -156.709679
209.957471 -45.202661 -158.630324
207.214480 -44.612110 -153.999736
214.753564 -46.235233 -156.981560
206.354363 -44.426932 -148.351355
207.487036 -44.670790 -146.688957
208.606911 -44.911893 -145.017511
211.339607 -45.500227 -144.448261
209.990903 -45.209858 -141.098864
207.782678 -44.734440 -137.237709
208.829977 -44.959918 -135.564179
208.205387 -44.825447 -132.823929
208.385243 -44.864169 -130.624641
207.706694 -44.718081 -127.914903
205.316570 -44.203501 -124.206105
204.573201 -44.043458 -121.548259
202.103439 -43.511732 -117.919163
203.002586 -43.705313 -116.291855
202.175856 -43.527323 -113.693867
201.321859 -43.343462 -111.116395
202.168799 -43.525804 -109.495577
202.135732 -43.518684 -107.407029
201.212070 -43.319825 -104.871805
201.136560 -43.303568 -102.805083
199.285956 -42.905144 -99.866192
200.046580 -43.068902 -98.262076
199.025746 -42.849122 -95.800341
199.755160 -43.006161 -94.198441
197.799289 -42.585073 -91.356188
197.600498 -42.542274 -89.359935
196.486113 -42.302353 -86.975388
197.147848 -42.444821 -85.394164
195.087868 -42.001319 -82.659621
193.904319 -41.746508 -80.338932
195.424128 -42.073714 -79.146779
194.202292 -41.810660 -76.852706
192.957396 -41.542640 -74.583192
194.441268 -41.862110 -73.376816
194.078851 -41.784083 -71.473701
195.544016 -42.099525 -70.243632
195.152420 -42.015217 -68.346575
195.671165 -42.126900 -66.776640
197.107592 -42.436154 -65.511603
197.604509 -42.543138 -63.926048
198.089237 -42.647497 -62.336549
198.561745 -42.749225 -60.743205
199.960789 -43.050432 -59.425106
200.410886 -43.147335 -57.816816
201.791572 -43.444589 -56.468833
202.218915 -43.536593 -54.845926
202.633783 -43.625912 -53.219636
203.036153 -43.712540 -51.590063
203.425998 -43.796471 -49.957308
204.755646 -44.082737 -48.547272
205.122076 -44.161627 -46.900797
205.475852 -44.237794 -45.251428
205.816954 -44.311231 -43.599269
206.145360 -44.381935 -41.944419
207.421334 -44.656645 -40.474364
206.764005 -44.515126 -38.627061
206.091163 -44.370266 -36.792827
205.402967 -44.222102 -34.971798
204.699581 -44.070667 -33.164107
203.014430 -43.707863 -31.221211
201.312190 -43.341380 -29.307456
199.593205 -42.971293 -27.422996
195.918037 -42.180050 -25.317313
197.077203 -42.429612 -23.860092
197.254322 -42.467744 -22.276065
198.391782 -42.712633 -20.792589
199.518570 -42.955224 -19.292204
199.660541 -42.985790 -17.688705
201.739369 -43.433350 -16.241033
202.833004 -43.668803 -14.690413
203.915211 -43.901796 -13.123219
205.961928 -44.342443 -11.594488
207.997627 -44.780717 -10.033674
219.790405 -47.319636 -8.833459
256.004798 -55.116391 -8.229619
256.060089 -55.128295 -6.172658
255.122106 -54.926352 -4.099610
257.100854 -55.352366 -2.065576
258.086384 -55.564545 0.000000
259.055993 -55.773296 2.081284
258.054544 -55.557690 4.146732
258.014747 -55.549122 6.219778
257.959034 -55.537127 8.292440
257.887408 -55.521706 10.364591
257.799875 -55.502861 12.436103
257.696440 -55.480592 14.506847
258.552780 -55.664957 16.639488
257.441889 -55.425789 18.645524
258.265376 -55.603081 20.791660
258.097772 -55.566997 22.865887
258.887510 -55.737023 25.032811
258.687324 -55.693924 27.111905
259.442877 -55.856590 29.299061
258.239094 -55.597422 31.264948
257.991078 -55.544026 33.338640
259.664946 -55.904400 35.676519
259.383014 -55.843702 37.761530
260.051817 -55.987691 39.992885
258.771168 -55.711975 41.924437
259.405626 -55.848570 44.166262
259.058517 -55.773840 46.248928
258.695429 -55.695669 48.328741
259.276668 -55.820806 50.592955
259.839035 -55.941881 52.869477
258.467803 -55.646662 54.752570
258.995144 -55.760196 57.037847
203.691098 -45.530355 -156.709679
205.670960 -45.972906 -155.659718
203.699577 -45.532250 -151.648595
209.619729 -46.855561 -153.493081
205.200628 -45.867775 -147.776350
205.524140 -45.940088 -145.551834
205.826258 -46.007620 -143.331261
205.295618 -45.889008 -140.559269
204.735282 -45.763757 -137.804727
204.965345 -45.815183 -135.610384
205.998444 -46.046108 -133.956699
205.362685 -45.903999 -131.236392
205.530140 -45.941429 -129.057145
204.004737 -45.600461 -125.851759
202.443030 -45.251378 -122.678981
201.689313 -45.082903 -120.041462
200.907757 -44.908204 -117.423704
200.950101 -44.917669 -115.314613
197.551749 -44.158048 -111.285099
198.398629 -44.347348 -109.691826
197.508307 -44.148337 -107.155927
198.323540 -44.330563 -105.563132
197.387442 -44.121321 -103.055843
198.171252 -44.296523 -101.464147
197.190037 -44.077195 -98.986313
196.183170 -43.852134 -96.530586
196.033967 -43.818783 -94.523003
194.979872 -43.583165 -92.105142
194.790368 -43.540806 -90.121645
194.582540 -43.494351 -88.146904
193.460858 -43.243625 -85.783944
194.112404 -43.389263 -84.224381
192.948718 -43.129148 -81.894255
193.570466 -43.268125 -80.338932
193.272889 -43.201609 -78.410530
192.957748 -43.131167 -76.491895
192.625173 -43.056827 -74.583192
193.190893 -43.183281 -73.030699
192.826476 -43.101824 -71.134963
193.365761 -43.222368 -69.580957
194.816418 -43.546629 -68.346575
195.334269 -43.662382 -66.776640
194.911919 -43.567976 -64.893569
195.403301 -43.677813 -63.322972
194.949855 -43.576455 -61.454428
195.414875 -43.680400 -59.883632
197.742175 -44.200613 -58.867123
198.187278 -44.300105 -57.273935
198.620156 -44.396865 -55.677214
199.984103 -44.701743 -54.333347
199.449130 -44.582163 -52.473566
199.845176 -44.670689 -50.866838
200.228894 -44.756460 -49.256972
201.550973 -45.051980 -47.869869
201.911668 -45.132605 -46.246367
203.213963 -45.423702 -44.830485
203.551310 -45.499108 -43.193694
202.918937 -45.357756 -41.359148
203.229686 -45.427217 -39.724839
202.567861 -45.279282 -37.908418
201.890788 -45.127938 -36.105111
200.235952 -44.758038 -34.150864
197.599829 -44.168795 -32.069065
197.839537 -44.222376 -30.477849
195.168498 -43.625328 -28.462049
194.413402 -43.456544 -26.757389
193.644273 -43.284623 -25.066647
193.830431 -43.326234 -23.507479
194.004631 -43.365173 -21.946862
196.108534 -43.835451 -20.588740
198.203464 -44.303723 -19.198096
198.344500 -44.335248 -17.602419
201.392026 -45.016451 -16.241033
202.483777 -45.260487 -14.690413
202.590131 -45.284259 -13.060428
203.658430 -45.523052 -11.484588
206.664675 -46.195028 -9.986568
207.710010 -46.428688 -8.362341
239.957061 -53.636758 -7.727047
254.643574 -56.919582 -6.149099
255.658648 -57.146478 -4.115317
256.658192 -57.369903 -2.065576
256.666108 -57.371672 0.000000
256.658192 -57.369903 2.065576
255.658648 -57.146478 4.115317
255.619220 -57.137665 6.172658
256.539459 -57.343363 8.261030
257.443392 -57.545416 10.364591
257.356010 -57.525884 12.436103
256.278311 -57.284989 14.451897
257.133627 -57.476175 16.576697
256.998641 -57.446002 18.645524
256.847801 -57.412286 20.713201
256.681117 -57.375027 22.779601
258.441772 -57.768580 25.032811
257.271096 -57.506903 27.009981
257.056137 -57.458854 29.079592
256.825321 -57.407261 31.147410
257.546884 -57.568549 33.338640
258.250639 -57.725857 35.543397
257.004061 -57.447214 37.479728
257.673933 -57.596948 39.695540
258.325631 -57.742620 41.924437
257.996323 -57.669011 44.002075
257.651101 -57.591844 46.076999
258.250022 -57.725719 48.328741
257.871630 -57.641138 50.405574
258.434495 -57.766954 52.674387
258.022788 -57.674926 54.752570
258.549221 -57.792598 57.037847
201.769162 -46.767581 -155.508838
203.736348 -47.223550 -154.471476
200.971321 -46.582651 -149.885239
204.489690 -47.398165 -150.004602
201.645979 -46.739028 -145.476329
202.752808 -46.995578 -143.846148
201.429971 -46.688960 -140.520844
202.498892 -46.936723 -138.892558
201.926879 -46.804138 -136.157659
202.962402 -47.044159 -134.525501
203.162883 -47.090628 -132.349218
203.342633 -47.132292 -130.178034
201.009884 -46.591589 -126.444653
200.301938 -46.427496 -123.788616
199.565850 -46.256880 -121.151857
200.486635 -46.470307 -119.539197
201.395054 -46.680867 -117.919163
201.441087 -46.691537 -115.803234
199.759867 -46.301851 -112.730360
198.044210 -45.904183 -109.691826
196.294538 -45.498631 -106.687998
196.240266 -45.486051 -104.641183
196.166835 -45.469031 -102.601853
196.074356 -45.447595 -100.570190
195.088108 -45.218995 -98.106435
195.832709 -45.391585 -96.530586
194.802314 -45.152752 -94.097223
194.631561 -45.113173 -92.105142
193.554530 -44.863531 -89.710130
194.234938 -45.021241 -88.146904
193.115261 -44.761714 -85.783944
193.765643 -44.912464 -84.224381
192.604035 -44.643218 -81.894255
193.224672 -44.787074 -80.338932
192.021864 -44.508278 -78.042405
191.704496 -44.434716 -76.131084
191.369783 -44.357134 -74.229717
191.931817 -44.487406 -72.684582
192.482011 -44.614935 -71.134963
193.020333 -44.739711 -69.580957
193.546747 -44.861727 -68.022658
194.985325 -45.195172 -66.776640
194.563729 -45.097451 -64.893569
193.196574 -44.780561 -62.719896
193.670489 -44.890409 -61.160388
194.132457 -44.997487 -59.597107
194.582451 -45.101790 -58.030150
195.958040 -45.420635 -56.731054
195.446403 -45.302044 -54.885594
195.860308 -45.397982 -53.308190
197.205699 -45.709827 -51.976186
198.542731 -46.019734 -50.625763
199.871206 -46.327658 -49.256972
199.292895 -46.193613 -47.418266
200.600261 -46.496644 -46.028224
200.946239 -46.576837 -44.409541
198.418023 -45.990828 -42.179757
197.779168 -45.842750 -40.383697
198.082046 -45.912953 -38.787932
198.372706 -45.980324 -37.189775
197.691461 -45.822420 -35.417395
195.073485 -45.215606 -33.329930
193.398119 -44.827277 -31.443327
192.669382 -44.658365 -29.734487
192.890940 -44.709719 -28.180246
193.100600 -44.758316 -26.624268
193.298348 -44.804151 -25.066647
195.419014 -45.295695 -23.742554
194.626352 -45.111966 -22.056597
194.789106 -45.149691 -20.486816
197.849394 -45.859027 -19.198096
198.960718 -46.116618 -17.688705
201.032259 -46.596776 -16.241033
200.178580 -46.398903 -14.549159
202.228224 -46.873986 -13.060428
204.267316 -47.346622 -11.539538
206.295490 -47.816727 -9.986568
207.338957 -48.058590 -8.362341
215.186085 -49.877456 -6.941778
246.397455 -57.111864 -5.960621
256.175993 -59.378407 -4.131024
259.122129 -60.061284 -2.089138
257.181774 -59.611534 0.000000
257.173842 -59.609696 2.073430
257.150046 -59.604180 4.146732
257.110388 -59.594988 6.219778
257.054870 -59.582120 8.292440
256.983496 -59.565576 10.364591
256.896270 -59.545358 12.436103
256.793198 -59.521467 14.506847
257.646536 -59.719260 16.639488
257.511280 -59.687910 18.716151
256.388969 -59.427772 20.713201
256.222583 -59.389206 22.779601
257.010242 -59.571776 24.938703
257.780608 -59.750337 27.111905
257.565223 -59.700413 29.189327
257.333949 -59.646807 31.264948
258.053294 -59.813542 33.463973
257.789300 -59.752351 35.543397
258.473860 -59.911024 37.761530
259.140319 -60.065501 39.992885
257.864159 -59.769703 41.924437
258.496392 -59.916247 44.166262
256.231166 -59.391195 45.905070
257.788685 -59.752209 48.328741
257.410968 -59.664659 50.405574
257.017373 -59.573428 52.479297
257.561857 -59.699633 54.752570
257.134997 -59.600692 56.827375
201.395631 -48.350813 -155.508838
203.359175 -48.822218 -154.471476
199.812603 -47.970762 -149.297454
203.319995 -48.812812 -149.423188
198.886044 -47.748315 -143.751313
200.777635 -48.202445 -142.709025
200.252840 -48.076453 -139.958761
200.507018 -48.137476 -137.781418
201.553056 -48.388608 -136.157659
201.769780 -48.440639 -133.983060
201.144774 -48.290588 -131.277565
199.665926 -47.935548 -128.061318
199.808677 -47.969819 -125.922154
200.764169 -48.199213 -124.304401
200.870318 -48.224697 -122.169940
201.797121 -48.447203 -120.543728
201.022215 -48.261164 -117.919163
201.068163 -48.272195 -115.803234
199.390056 -47.869317 -112.730360
200.244817 -48.074527 -111.116395
197.649837 -47.451527 -107.623857
197.602759 -47.440225 -105.563132
196.670063 -47.216305 -103.055843
196.581196 -47.194970 -101.017168
195.600161 -46.959444 -98.546374
195.470168 -46.928235 -96.530586
194.441681 -46.681317 -94.097223
195.154294 -46.852401 -92.523802
194.968649 -46.807831 -90.533159
193.875355 -46.545355 -88.146904
192.757750 -46.277042 -85.783944
193.406928 -46.432895 -84.224381
192.247471 -46.154534 -81.894255
192.866959 -46.303260 -80.338932
191.666378 -46.015026 -78.042405
190.442728 -45.721254 -75.770274
191.015504 -45.858765 -74.229717
191.576497 -45.993448 -72.684582
191.210789 -45.905649 -70.796225
192.662998 -46.254293 -69.580957
192.268494 -46.159581 -67.698740
193.701962 -46.503727 -66.460163
193.278759 -46.402125 -64.584552
192.838913 -46.296527 -62.719896
192.382566 -46.186968 -60.866347
191.909861 -46.073481 -59.024058
191.420942 -45.956102 -57.193177
192.787679 -46.284227 -55.916733
193.208764 -46.385320 -54.357848
194.557823 -46.709201 -53.051900
196.840616 -47.257251 -51.976186
197.231482 -47.351089 -50.384688
197.610182 -47.442007 -48.790081
198.923949 -47.757415 -47.418266
197.382038 -47.387235 -45.373794
195.821287 -47.012532 -43.357183
193.289862 -46.404790 -41.165821
194.551965 -46.707794 -39.798426
194.849901 -46.779323 -38.225788
193.222722 -46.388671 -36.291471
192.536026 -46.223810 -34.557749
192.794002 -46.285745 -33.001556
192.079687 -46.114253 -31.286893
192.312697 -46.170194 -29.734487
191.571176 -45.992170 -28.039345
192.743116 -46.273528 -26.624268
192.940499 -46.320915 -25.066647
194.091609 -46.597273 -23.625017
194.266045 -46.639151 -22.056597
195.395803 -46.910382 -20.588740
196.515065 -47.179093 -19.103988
197.623643 -47.445239 -17.602419
198.721348 -47.708775 -16.084115
198.838052 -47.736793 -14.478532
199.912941 -47.994851 -12.934847
202.918260 -48.716364 -11.484588
203.970998 -48.969104 -9.892355
205.011875 -49.218996 -8.283821
209.928265 -50.399317 -6.784724
219.694604 -52.744008 -5.324507
254.729490 -61.155140 -4.115317
256.697742 -61.627675 -2.073430
257.678029 -61.863021 0.000000
255.725402 -61.394237 2.065576
255.701740 -61.388556 4.131024
256.634405 -61.612470 6.219778
256.578990 -61.599166 8.292440
256.507748 -61.582062 10.364591
254.478103 -61.094787 12.341890
255.346901 -61.303367 14.451897
256.199109 -61.507964 16.576697
257.034554 -61.708537 18.716151
256.883694 -61.672318 20.791660
256.716987 -61.632296 22.865887
257.502499 -61.820880 25.032811
257.303384 -61.773077 27.111905
256.121900 -61.489428 29.079592
257.823182 -61.897870 31.382485
257.575566 -61.838422 33.463973
258.275776 -62.006528 35.676519
257.032683 -61.708088 37.620629
257.699014 -61.868060 39.844212
257.386780 -61.793099 41.924437
258.017843 -61.944604 44.166262
256.714701 -61.631747 46.076999
256.354898 -61.545366 48.149081
256.934429 -61.684499 50.405574
255.587876 -61.361220 52.284206
257.085038 -61.720657 54.752570
256.658969 -61.618367 56.827375
202.561875 -50.316631 -156.709679
204.530761 -50.805705 -155.659718
200.999995 -49.928658 -150.473025
203.719965 -50.604302 -150.004602
199.298919 -49.506109 -144.326318
200.392865 -49.777846 -142.709025
199.869076 -49.647736 -139.958761
200.929714 -49.911200 -138.336988
200.355644 -49.768601 -135.608636
201.383109 -50.023824 -133.983060
199.120449 -49.461777 -130.205911
200.106772 -49.706780 -128.590497
200.253257 -49.743168 -126.444653
202.042325 -50.187574 -125.335973
202.156082 -50.215832 -123.188023
203.088818 -50.447525 -121.548259
202.323002 -50.257295 -118.910080
202.376362 -50.270550 -116.780477
201.559329 -50.067598 -114.175621
200.715175 -49.857909 -111.591252
200.701862 -49.854602 -109.495577
199.807795 -49.632514 -106.946055
198.022620 -49.189075 -103.963824
197.940791 -49.168748 -101.911126
196.968396 -48.927204 -99.426252
196.845306 -48.896628 -97.396331
195.825334 -48.643266 -94.948782
195.661660 -48.602609 -92.942462
194.595012 -48.337652 -90.533159
194.391445 -48.287086 -88.551247
193.279037 -48.010762 -86.181092
193.036284 -47.950462 -84.224381
192.775679 -47.885728 -82.276938
192.497350 -47.816590 -80.338932
191.299069 -47.518936 -78.042405
189.172632 -46.990726 -75.409463
190.649442 -47.357568 -74.229717
190.298840 -47.270477 -72.338465
190.844353 -47.405984 -70.796225
192.293779 -47.766023 -69.580957
190.981849 -47.440138 -67.374823
191.489507 -47.566241 -65.827209
191.062347 -47.460134 -63.966518
191.544023 -47.579783 -62.418358
191.086281 -47.466079 -60.572307
190.612270 -47.348334 -58.737533
191.054104 -47.458086 -57.193177
190.550084 -47.332887 -55.373852
190.030171 -47.203740 -53.566229
190.432606 -47.303705 -52.026743
192.703327 -47.867755 -50.981427
194.969743 -48.430736 -49.902538
195.344100 -48.523727 -48.323190
193.815524 -48.144026 -46.289260
192.268108 -47.759646 -44.283078
191.650948 -47.606343 -42.515295
191.969099 -47.685372 -40.963034
192.275410 -47.761460 -39.408245
192.569859 -47.834602 -37.851026
190.943001 -47.430488 -35.932150
191.210996 -47.497058 -34.385820
191.467196 -47.560699 -32.837369
190.753028 -47.383298 -31.130459
190.984429 -47.440779 -29.585814
190.243225 -47.256663 -27.898444
191.411875 -47.546957 -26.491146
191.607894 -47.595648 -24.941313
192.755873 -47.880808 -23.507479
193.893754 -48.163459 -22.056597
194.055895 -48.203735 -20.486816
195.172265 -48.481043 -19.009879
196.278030 -48.755716 -17.516132
196.405489 -48.787377 -15.927196
197.488916 -49.056502 -14.407905
197.592646 -49.082268 -12.809266
199.622267 -49.586429 -11.319737
201.641251 -50.087947 -9.798142
202.679474 -50.345843 -8.205301
204.675821 -50.841738 -6.627670
209.571211 -52.057759 -5.088909
241.626299 -60.020285 -3.911122
254.264854 -63.159718 -2.057722
255.243203 -63.402741 0.000000
255.235330 -63.400786 2.065576
255.211714 -63.394919 4.131024
255.172355 -63.385142 6.196218
249.297090 -61.925719 8.072565
241.469804 -59.981411 9.775694
233.632411 -58.034592 11.352655
237.414833 -58.974151 13.462794
254.739538 -63.277630 16.513907
255.573891 -63.484884 18.645524
255.423888 -63.447623 20.713201
256.225015 -63.646625 22.865887
256.042823 -63.601368 24.938703
255.844837 -63.552188 27.009981
256.595714 -63.738707 29.189327
257.329091 -63.920878 31.382485
257.081949 -63.859488 33.463973
257.780817 -64.033088 35.676519
257.500931 -63.963564 37.761530
257.205161 -63.890094 39.844212
257.852083 -64.050790 42.080871
256.566043 -63.731336 44.002075
257.178789 -63.883543 46.248928
257.773051 -64.031159 48.508402
257.395357 -63.937339 50.592955
257.001785 -63.839575 52.674387
256.592361 -63.737874 54.752570
257.115875 -63.867915 57.037847
206.807812 -53.099221 -160.312200
208.800058 -53.610743 -159.224445
202.168861 -51.908141 -151.648595
206.468430 -53.012083 -152.330254
202.073740 -51.883718 -146.626339
203.182917 -52.168506 -144.983272
203.478465 -52.244390 -142.769178
204.558256 -52.521633 -141.114839
201.577685 -51.756353 -136.706682
201.797717 -51.812847 -134.525501
201.179246 -51.654051 -131.813392
202.997618 -52.120930 -130.707213
203.985668 -52.374618 -129.057145
204.961134 -52.625075 -127.399117
204.256557 -52.444170 -124.715147
204.361438 -52.471099 -122.552790
205.287413 -52.708849 -120.891915
205.355641 -52.726367 -118.734962
205.403766 -52.738723 -116.584389
203.727063 -52.308219 -113.490677
203.728121 -52.308491 -111.367296
202.849958 -52.083017 -108.789952
201.082242 -51.629145 -105.779786
200.147842 -51.389231 -103.252061
198.317680 -50.919326 -100.306131
198.201474 -50.889489 -98.262076
197.190056 -50.629801 -95.800341
198.792354 -51.041201 -94.617101
195.974910 -50.317805 -91.356188
195.777954 -50.267235 -89.359935
195.562769 -50.211985 -87.372536
195.329478 -50.152086 -85.394164
195.078206 -50.087570 -83.424988
193.013604 -49.557470 -80.714348
191.820526 -49.251140 -78.410530
190.604414 -48.938896 -76.131084
190.271621 -48.853449 -74.229717
191.739146 -49.230245 -73.030699
191.377467 -49.137382 -71.134963
191.912699 -49.274806 -69.580957
192.436093 -49.409191 -68.022658
192.947617 -49.540528 -66.460163
192.526061 -49.432291 -64.584552
191.164429 -49.082683 -62.418358
191.633359 -49.203084 -60.866347
191.162495 -49.082187 -59.024058
190.675480 -48.957142 -57.193177
191.104677 -49.067341 -55.645292
190.587831 -48.934638 -53.830102
190.991447 -49.038269 -52.283032
190.445128 -48.897998 -50.484047
190.823294 -48.995095 -48.938237
193.073332 -49.572806 -47.856300
192.487859 -49.422482 -46.063458
191.887078 -49.268228 -44.283078
191.271141 -49.110082 -42.515295
191.588663 -49.191608 -40.963034
192.844338 -49.514010 -39.603335
191.236805 -49.101266 -37.663644
191.517420 -49.173316 -36.111810
191.786221 -49.242332 -34.557749
190.132315 -48.817681 -32.673182
191.331659 -49.125620 -31.286893
191.563762 -49.185214 -29.734487
190.825129 -48.995565 -28.039345
191.992505 -49.295297 -26.624268
192.189119 -49.345779 -25.066647
192.373877 -49.393217 -23.507479
193.509503 -49.684796 -22.056597
194.634861 -49.973739 -20.588740
195.749765 -50.259997 -19.103988
196.854025 -50.543523 -17.602419
196.981858 -50.576345 -16.005656
197.097540 -50.606047 -14.407905
198.167736 -50.880827 -12.872057
198.259544 -50.904399 -11.264787
201.241646 -51.670073 -9.798142
203.245648 -52.184613 -8.244561
205.238307 -52.696241 -6.659081
205.282634 -52.707622 -4.994670
220.809717 -56.694299 -3.581268
243.106875 -62.419236 -1.971329
252.800205 -64.908061 0.000000
255.698068 -65.652105 2.073430
254.705945 -65.397371 4.131024
254.666664 -65.387286 6.196218
220.727991 -56.673316 7.161653
211.956176 -54.421096 8.597900
209.949217 -53.905797 10.222100
210.832100 -54.132483 11.979139
236.834611 -60.808793 15.383677
238.642610 -61.273008 17.444866
242.364933 -62.228738 19.693233
247.997473 -63.674928 22.175596
255.535407 -65.610341 24.938703
256.301352 -65.807002 27.111905
256.087203 -65.752018 29.189327
255.857256 -65.692978 31.264948
256.572473 -65.876614 33.463973
256.309995 -65.809221 35.543397
256.990625 -65.983978 37.761530
256.695441 -65.908187 39.844212
257.341081 -66.073959 42.080871
257.013029 -65.989730 44.166262
255.714962 -65.656443 46.076999
256.309383 -65.809064 48.328741
255.933834 -65.712640 50.405574
256.492469 -65.856073 52.674387
257.032315 -65.994682 54.955357
256.606333 -65.885308 57.037847
207.930348 -55.131733 -161.513041
210.705094 -55.867443 -161.006808
204.882928 -54.323724 -153.999736
211.550749 -56.091665 -156.400147
209.568254 -55.566016 -152.376392
205.947582 -54.606012 -147.257519
219.050990 -58.080318 -154.010846
222.624516 -59.027821 -153.892955
217.322808 -57.622099 -147.687138
211.128974 -55.979833 -141.034800
210.560884 -55.829207 -138.243313
213.244216 -56.540679 -137.586540
210.985490 -55.941789 -133.759633
210.338223 -55.770169 -131.009618
212.990293 -56.473353 -130.314602
217.316346 -57.620385 -130.589039
224.178356 -59.439814 -132.287464
226.019067 -59.927870 -130.950493
227.006218 -60.189608 -129.109985
215.219326 -57.064370 -120.138667
216.124731 -57.304434 -118.386243
210.154612 -55.721486 -112.938722
203.254291 -53.891899 -107.141758
202.332064 -53.647375 -104.592997
200.515749 -53.165788 -101.625948
199.538373 -52.906641 -99.127821
197.660938 -52.408848 -96.226120
198.385350 -52.600923 -94.617101
197.335600 -52.322586 -92.179216
196.261181 -52.037709 -89.764278
196.049479 -51.981577 -87.769684
194.929564 -51.684637 -85.394164
193.785785 -51.381370 -83.042305
193.514331 -51.309395 -81.089763
191.427796 -50.756160 -78.410530
188.411196 -49.956323 -75.409463
188.977862 -50.106572 -73.876242
189.532871 -50.253730 -72.338465
190.076188 -50.397788 -70.796225
190.607781 -50.538737 -69.249619
189.298644 -50.191626 -67.050906
189.801828 -50.325043 -65.510732
190.293304 -50.455355 -63.966518
188.929825 -50.093835 -61.815282
191.241013 -50.706636 -60.866347
189.845039 -50.336500 -58.737533
189.356875 -50.207066 -56.914186
189.783103 -50.320078 -55.373852
189.265284 -50.182781 -53.566229
189.666099 -50.289055 -52.026743
190.055214 -50.392227 -50.484047
188.556423 -49.994830 -48.456087
188.918466 -50.090824 -46.922518
189.268855 -50.183728 -45.386055
189.607570 -50.273536 -43.846792
189.934588 -50.360244 -42.304824
188.356857 -49.941916 -40.354672
190.553458 -50.524334 -39.213155
188.946312 -50.098207 -37.288882
190.174439 -50.423839 -35.932150
189.489148 -50.242137 -34.213891
190.696524 -50.562267 -32.837369
189.985231 -50.373671 -31.130459
190.215700 -50.434779 -29.585814
190.434437 -50.492776 -28.039345
191.599423 -50.801667 -26.624268
190.836656 -50.599423 -24.941313
191.020114 -50.648066 -23.389942
191.191789 -50.693584 -21.837128
193.274803 -51.245886 -20.486816
194.386680 -51.540694 -19.009879
195.487995 -51.832703 -17.516132
195.614940 -51.866362 -15.927196
196.694006 -52.152471 -14.407905
197.762011 -52.435647 -12.872057
197.853631 -52.459940 -11.264787
200.829627 -53.249011 -9.798142
200.897817 -53.267091 -8.166042
203.851983 -54.050374 -6.627670
204.862342 -54.318266 -4.994670
207.793384 -55.095417 -3.377073
212.645464 -56.381923 -1.727858
230.050824 -60.996871 0.000000
234.876580 -62.276397 1.908498
234.854848 -62.270635 3.816878
229.986969 -60.979940 5.607224
205.784230 -54.562700 6.690492
203.795381 -54.035366 8.283821
202.760682 -53.761021 9.892355
202.679329 -53.739450 11.539538
202.585475 -53.714565 13.186009
204.407497 -54.197666 14.972921
205.251144 -54.421355 16.711787
209.932920 -55.662705 18.810428
237.690643 -63.022532 23.244753
255.776605 -67.817938 27.111905
256.523657 -68.016015 29.299061
256.293319 -67.954942 31.382485
257.006150 -68.143946 33.589307
255.785230 -67.820225 35.543397
256.464468 -68.000321 37.761530
256.169888 -67.922215 39.844212
255.859506 -67.839919 41.924437
256.486825 -68.006249 44.166262
255.191416 -67.662778 46.076999
254.833748 -67.567944 48.149081
256.359318 -67.972442 50.592955
255.967331 -67.868508 52.674387
255.559555 -67.760388 54.752570
255.136014 -67.648088 56.827375
207.490936 -56.763097 -161.513041
211.035684 -57.732830 -161.600929
209.132016 -57.212046 -157.526448
214.242774 -58.610191 -158.725799
215.438600 -58.937332 -156.976434
212.653716 -58.175474 -152.374576
228.959044 -62.636107 -161.317929
231.778053 -63.407300 -160.559797
235.405784 -64.399735 -160.314663
234.992356 -64.286634 -157.308046
234.547996 -64.165071 -154.318117
238.983552 -65.378502 -154.520268
235.212233 -64.346786 -149.434590
232.205260 -63.524171 -144.935837
235.786771 -64.503961 -144.567762
241.879072 -66.170626 -145.657005
245.488577 -67.158075 -145.169390
247.422314 -67.687086 -143.654645
247.657696 -67.751479 -141.153827
242.777273 -66.416346 -135.808928
242.093725 -66.229349 -132.892067
240.525104 -65.800222 -129.533799
220.013300 -60.188828 -116.221568
218.298436 -59.719694 -113.085591
210.486396 -57.582562 -106.905218
209.550758 -57.326600 -104.322292
201.607016 -55.153438 -98.355016
201.469934 -55.115937 -96.291740
199.555880 -54.592311 -93.413759
198.493002 -54.301541 -90.977309
197.405628 -54.004069 -88.563980
197.182251 -53.942960 -86.563947
194.267399 -53.145546 -83.424988
193.999390 -53.072227 -81.465179
191.920081 -52.503393 -78.778654
188.912617 -51.680644 -75.770274
189.480791 -51.836079 -74.229717
190.942216 -52.235879 -73.030699
190.582040 -52.137346 -71.134963
189.294905 -51.785226 -68.918281
191.636267 -52.425750 -68.022658
190.315706 -52.064486 -65.827209
191.725861 -52.450260 -64.584552
191.289549 -52.330899 -62.719896
191.758787 -52.459268 -61.160388
190.367962 -52.078781 -59.024058
190.809230 -52.199498 -57.472168
190.310384 -52.063030 -55.645292
190.726058 -52.176745 -54.093975
190.197625 -52.032182 -52.283032
190.587831 -52.138931 -50.732737
190.966281 -52.242463 -49.179312
190.395044 -52.086190 -47.389409
190.748172 -52.182795 -45.837657
190.148206 -52.018663 -44.064935
190.476157 -52.108380 -42.515295
190.792359 -52.194883 -40.963034
190.150767 -52.019363 -39.213155
191.389436 -52.358225 -37.851026
190.721412 -52.175474 -36.111810
190.038902 -51.988760 -34.385820
191.244999 -52.318711 -33.001556
190.536423 -52.124867 -31.286893
191.721399 -52.449040 -29.883159
191.941867 -52.509353 -28.321148
192.150495 -52.566427 -26.757389
191.390319 -52.358466 -25.066647
191.574309 -52.408801 -23.507479
192.705215 -52.718181 -22.056597
193.825896 -53.024765 -20.588740
193.975889 -53.065798 -19.009879
196.035836 -53.629336 -17.602419
196.163138 -53.664162 -16.005656
197.240488 -53.958892 -14.478532
197.344087 -53.987233 -12.872057
197.435514 -54.012245 -11.264787
197.514761 -54.033924 -9.656822
201.437080 -55.106949 -8.205301
203.421190 -55.649740 -6.627670
204.429414 -55.925559 -4.994670
203.496507 -55.670345 -3.314244
203.515338 -55.675496 -1.657173
205.450730 -56.204960 0.000000
205.444394 -56.203226 1.672881
203.496507 -55.670345 3.314244
202.500834 -55.397959 4.947551
200.528945 -54.858512 6.533438
199.509452 -54.579610 8.126782
199.441734 -54.561084 9.751035
200.324814 -54.802668 11.429637
200.232050 -54.777290 13.060428
198.202637 -54.222106 14.549159
200.971058 -54.979460 16.397951
201.801596 -55.206670 18.120137
210.300593 -57.531732 20.609721
232.207262 -63.524718 24.665718
252.146625 -68.979511 28.860124
254.793832 -69.703705 31.264948
255.506076 -69.898553 33.463973
256.200660 -70.088570 35.676519
255.922490 -70.012471 37.761530
255.628533 -69.932053 39.844212
255.318807 -69.847322 41.924437
255.944800 -70.018574 44.166262
256.552517 -70.184827 46.420857
255.244079 -69.826878 48.328741
255.817563 -69.983766 50.592955
255.426404 -69.876757 52.674387
255.964006 -70.023828 54.955357
255.539795 -69.907777 57.037847
207.038725 -58.390959 -161.513041
211.349923 -59.606843 -162.195050
215.684012 -60.829183 -162.816515
215.341971 -60.732717 -159.888626
222.843392 -62.848336 -162.726486
218.524290 -61.630224 -156.923071
230.052101 -64.881403 -162.442096
229.672405 -64.774317 -159.448657
238.110443 -67.154090 -162.510754
240.948627 -67.954541 -161.647578
244.600978 -68.984610 -161.283865
245.812583 -69.326318 -159.282879
247.009025 -69.663750 -157.272068
247.365679 -69.764337 -154.735769
246.870850 -69.624781 -151.694342
248.842146 -70.180743 -150.177394
249.969666 -70.498737 -148.142142
250.242029 -70.575551 -145.609130
249.648162 -70.408064 -142.599088
249.871351 -70.471009 -140.082635
250.922533 -70.767473 -138.039295
250.250046 -70.577812 -135.065492
245.260414 -69.170591 -129.841283
244.512405 -68.959630 -126.941928
240.278553 -67.765561 -122.303089
239.460415 -67.534822 -119.472832
220.326450 -62.138486 -107.722161
211.519411 -59.654644 -101.315656
202.629702 -57.147486 -95.059817
200.701207 -56.603594 -92.190340
198.741993 -56.051039 -89.358275
197.638780 -55.739901 -86.953874
196.511585 -55.421999 -84.573039
194.468640 -54.845829 -81.840595
190.606937 -53.756716 -78.410530
188.500895 -53.162751 -75.770274
188.167508 -53.068726 -73.876242
188.720137 -53.224583 -72.338465
187.450014 -52.866372 -70.118749
187.974262 -53.014225 -68.586943
188.486915 -53.158808 -67.050906
188.987941 -53.300112 -65.510732
189.477310 -53.438128 -63.966518
189.037334 -53.314042 -62.116820
188.581138 -53.185382 -60.278267
189.030967 -53.312246 -58.737533
189.469136 -53.435823 -57.193177
188.969297 -53.294854 -55.373852
189.382041 -53.411260 -53.830102
189.783103 -53.524371 -52.283032
189.240241 -53.371268 -50.484047
190.550084 -53.740682 -49.179312
190.915954 -53.843868 -47.622854
189.394852 -53.414873 -45.611856
190.673068 -53.775367 -44.283078
190.061028 -53.602754 -42.515295
190.376541 -53.691737 -40.963034
190.680310 -53.777409 -39.408245
190.972317 -53.859764 -37.851026
190.305749 -53.671772 -36.111810
190.572850 -53.747102 -34.557749
190.828195 -53.819117 -33.001556
191.071769 -53.887812 -31.443327
191.303557 -53.953183 -29.883159
191.523544 -54.015226 -28.321148
191.731717 -54.073937 -26.757389
191.928064 -54.129312 -25.191980
192.112571 -54.181349 -23.625017
193.241871 -54.499844 -22.166331
193.403467 -54.545419 -20.588740
194.511317 -54.857865 -19.103988
192.731994 -54.356044 -17.343560
194.776127 -54.932549 -15.927196
194.890513 -54.964809 -14.337278
194.992878 -54.993679 -12.746475
196.044216 -55.290187 -11.209837
199.968452 -56.396936 -9.798142
200.036349 -56.416085 -8.166042
201.053887 -56.703061 -6.564849
201.097310 -56.715307 -4.923991
202.090665 -56.995462 -3.298537
202.109366 -57.000736 -1.649319
202.115600 -57.002494 0.000000
200.184515 -56.457872 1.633611
198.241319 -55.909834 3.235707
196.286370 -55.358482 4.806192
196.243986 -55.346528 6.407795
195.227783 -55.059929 7.969743
195.161519 -55.041241 9.562609
196.044216 -55.290187 11.209837
197.874546 -55.806394 12.934847
196.810617 -55.506335 14.478532
196.695103 -55.473756 16.084115
197.526322 -55.708184 17.774991
201.218603 -56.749515 19.762746
202.020453 -56.975660 21.506060
242.987303 -68.529507 27.872515
254.238527 -71.702680 31.264948
254.949219 -71.903116 33.463973
254.688401 -71.829558 35.543397
255.364726 -72.020301 37.761530
256.023168 -72.206001 39.992885
254.762359 -71.850416 41.924437
255.386987 -72.026580 44.166262
254.097133 -71.662803 46.076999
254.687793 -71.829386 48.328741
253.369212 -71.457508 50.218192
253.925759 -71.614471 52.479297
253.521235 -71.500383 54.549782
254.041968 -71.647245 56.827375
206.573742 -60.015220 -161.513041
210.102821 -61.040512 -161.600929
215.976507 -62.746976 -163.404300
215.639644 -62.649108 -160.470039
222.342914 -64.596588 -162.726486
222.773372 -64.721647 -160.334442
230.329673 -66.916956 -163.004180
229.955045 -66.808117 -160.004227
236.773057 -68.788932 -161.961731
241.214224 -70.079210 -162.190019
244.862438 -71.139115 -161.819692
246.890158 -71.728221 -160.341237
247.273060 -71.839465 -157.794567
248.455528 -72.183004 -155.767341
247.969540 -72.041811 -152.712425
249.113657 -72.374208 -150.679660
249.408266 -72.459800 -148.142142
250.517870 -72.782169 -146.097751
250.770508 -72.855567 -143.562595
250.155292 -72.676831 -140.557491
249.510319 -72.489449 -137.571365
249.688016 -72.541075 -135.065492
248.987730 -72.337623 -132.111235
249.117415 -72.375300 -129.623800
249.224991 -72.406553 -127.142420
248.444896 -72.179915 -124.234431
245.898617 -71.440152 -120.495540
239.823143 -69.675064 -115.131428
227.555851 -66.111086 -106.993733
224.842619 -65.322819 -103.511960
213.277981 -61.962981 -96.109790
213.111986 -61.914755 -93.972573
204.055007 -59.283460 -88.017189
200.262271 -58.181568 -84.468504
192.857434 -56.030264 -79.514903
191.659976 -55.682370 -77.213517
189.541510 -55.066899 -74.583192
189.197235 -54.966878 -72.684582
187.932547 -54.599452 -70.457487
188.458145 -54.752152 -68.918281
188.972118 -54.901475 -67.374823
190.385368 -55.312063 -66.143686
189.051768 -54.924616 -63.966518
187.697184 -54.531073 -61.815282
189.075451 -54.931497 -60.572307
189.526459 -55.062526 -59.024058
189.965776 -55.190160 -57.472168
190.393375 -55.314389 -55.916733
188.956713 -54.897000 -53.830102
190.285095 -55.282930 -52.539321
189.745356 -55.126122 -50.732737
190.122133 -55.235586 -49.179312
190.487182 -55.341642 -47.622854
190.840481 -55.444285 -46.063458
191.182008 -55.543508 -44.501221
190.572959 -55.366563 -42.725767
190.889321 -55.458474 -41.165821
191.193908 -55.546965 -39.603335
191.486702 -55.632030 -38.038407
191.767683 -55.713662 -36.471132
191.090842 -55.517022 -34.729678
191.346881 -55.591408 -33.165743
191.591117 -55.662365 -31.599762
190.873914 -55.453998 -29.883159
192.044120 -55.793975 -28.462049
193.204606 -56.131127 -27.023632
193.402461 -56.188609 -25.442646
192.634748 -55.965568 -23.742554
192.807875 -56.015866 -22.166331
192.969108 -56.062708 -20.588740
193.118437 -56.106093 -19.009879
193.255855 -56.146016 -17.429846
194.338684 -56.460607 -15.927196
194.452814 -56.493765 -14.337278
194.554949 -56.523438 -12.746475
195.603926 -56.828194 -11.209837
199.519349 -57.965729 -9.798142
199.587093 -57.985411 -8.166042
200.602346 -58.280369 -6.564849
200.645672 -58.292956 -4.923991
200.676620 -58.301948 -3.282829
199.734926 -58.028360 -1.633611
199.741087 -58.030150 0.000000
195.893870 -56.912430 1.602196
195.875744 -56.907164 3.204293
193.925482 -56.340561 4.759072
193.883607 -56.328395 6.344973
193.829773 -56.312755 7.930483
194.723211 -56.572322 9.562609
194.645083 -56.549624 11.154887
195.513348 -56.801878 12.809266
196.368606 -57.050354 14.478532
195.296018 -56.738738 16.005656
196.125991 -56.979868 17.688705
197.898597 -57.494857 19.480421
201.566741 -58.560552 21.506060
224.306191 -65.166973 25.787563
253.667540 -73.697233 31.264948
254.376636 -73.903244 33.463973
255.068150 -74.104148 35.676519
254.791209 -74.023689 37.761530
254.498551 -73.938664 39.844212
255.138666 -74.124635 42.080871
254.813421 -74.030142 44.166262
254.472457 -73.931083 46.248928
254.115797 -73.827464 48.328741
253.743462 -73.719290 50.405574
254.297316 -73.880200 52.674387
254.832542 -74.035697 54.955357
254.410206 -73.912997 57.037847
206.096018 -61.635779 -161.513041
210.387586 -62.919230 -162.195050
215.477038 -64.441299 -163.404300
214.361457 -64.107669 -159.888626
223.396416 -66.809695 -163.876497
222.258183 -66.469291 -160.334442
230.589414 -68.960857 -163.566263
230.219857 -68.850337 -160.559797
237.827021 -71.125361 -163.059777
240.656389 -71.971522 -162.190019
245.105094 -73.301966 -162.355519
246.319196 -73.665060 -160.341237
247.518105 -74.023610 -158.317065
246.239351 -73.641181 -154.735769
247.396083 -73.987117 -152.712425
248.537554 -74.328490 -150.679660
249.663694 -74.665277 -148.637601
249.938519 -74.747467 -146.097751
250.190573 -74.822847 -143.562595
249.576780 -74.639284 -140.557491
249.780010 -74.700063 -138.039295
247.410171 -73.991331 -134.143543
248.411918 -74.290917 -132.111235
249.398342 -74.585920 -130.070779
247.788254 -74.104401 -126.702481
246.143020 -73.612372 -123.368686
243.596168 -72.850702 -119.643981
243.618862 -72.857489 -117.224727
241.000655 -72.074479 -113.577963
239.219071 -71.541672 -110.385802
225.973890 -67.580523 -102.067008
222.323749 -66.488900 -98.261777
208.008826 -62.207830 -89.930607
199.799142 -59.752614 -84.468504
191.520636 -57.276815 -79.146779
190.323205 -56.918708 -76.852706
189.103174 -56.553841 -74.583192
187.860840 -56.182304 -72.338465
187.497932 -56.073772 -70.457487
188.022314 -56.230595 -68.918281
187.628680 -56.112874 -67.050906
190.853909 -57.077422 -66.460163
188.614565 -56.407716 -63.966518
188.176592 -56.276734 -62.116820
187.722474 -56.140924 -60.278267
188.170255 -56.274839 -58.737533
188.606428 -56.405282 -57.193177
191.797274 -57.359548 -56.459614
188.519730 -56.379354 -53.830102
187.992893 -56.221796 -52.026743
188.378575 -56.337140 -50.484047
188.752638 -56.449008 -48.938237
189.115058 -56.557395 -47.389409
189.465812 -56.662293 -45.837657
188.869879 -56.484071 -44.064935
189.195625 -56.581490 -42.515295
189.509701 -56.675418 -40.963034
188.872423 -56.484832 -39.213155
189.161662 -56.571332 -37.663644
191.324199 -57.218068 -36.471132
191.592729 -57.298376 -34.901607
189.959299 -56.809877 -33.001556
190.201764 -56.882389 -31.443327
190.432496 -56.951393 -29.883159
191.599997 -57.300549 -28.462049
190.858708 -57.078857 -26.757389
192.955196 -57.705840 -25.442646
191.237827 -57.192238 -23.625017
191.409698 -57.243638 -22.056597
191.569762 -57.291507 -20.486816
191.718009 -57.335842 -18.915771
192.808929 -57.662097 -17.429846
195.799493 -58.556465 -16.084115
194.958801 -58.305045 -14.407905
195.061202 -58.335669 -12.809266
195.151570 -58.362695 -11.209837
200.971957 -60.103360 -9.892355
201.040195 -60.123767 -8.244561
201.096031 -60.140466 -6.596259
200.181656 -59.867010 -4.923991
198.296624 -59.303265 -3.251415
198.314973 -59.308753 -1.625757
198.321090 -59.310582 0.000000
195.440843 -58.449206 1.602196
193.506850 -57.870819 3.172878
194.434814 -58.148340 4.782632
192.477630 -57.563017 6.313563
195.296189 -58.405945 8.009002
194.272892 -58.099914 9.562609
196.108196 -58.648787 11.264787
195.061202 -58.335669 12.809266
194.958801 -58.305045 14.407905
194.844374 -58.270824 16.005656
194.717928 -58.233009 17.602419
198.394755 -59.332613 19.574529
199.194429 -59.571766 21.302211
231.405754 -69.204995 26.665438
249.275178 -74.549086 30.794798
253.788362 -75.898814 33.463973
253.528731 -75.821168 35.543397
254.201976 -76.022511 37.761530
253.909995 -75.935190 39.844212
254.548629 -76.126182 42.080871
254.224136 -76.029138 44.166262
253.883962 -75.927404 46.248928
253.528126 -75.820987 48.328741
254.097754 -75.991342 50.592955
253.709225 -75.875147 52.674387
254.243213 -76.034843 54.955357
253.821854 -75.908830 57.037847
205.605580 -63.252535 -161.513041
209.118119 -64.333134 -161.600929
214.191023 -65.893763 -162.816515
213.851350 -65.789266 -159.888626
217.390936 -66.878185 -159.851460
218.584189 -67.245277 -158.060195
223.716547 -68.824197 -159.069596
224.903736 -69.189423 -157.226376
233.266781 -71.762232 -160.314663
236.068932 -72.624286 -159.477812
242.907823 -74.728204 -161.283865
244.111041 -75.098362 -159.282879
244.484254 -75.213177 -156.749569
242.378008 -74.565211 -152.672626
243.516600 -74.915488 -150.676259
246.293146 -75.769665 -149.675129
247.409116 -76.112983 -147.646683
248.509826 -76.451605 -145.609130
247.920070 -76.270172 -142.599088
247.300556 -76.079585 -139.607779
244.962135 -75.360193 -135.699646
241.732319 -74.366571 -131.377697
242.711076 -74.667677 -129.387292
241.964864 -74.438112 -126.494950
231.748691 -71.295207 -118.783576
224.017171 -68.916681 -112.546871
218.801326 -67.312077 -107.722161
216.999225 -66.757679 -104.664934
213.422657 -65.657382 -100.821018
209.802032 -64.543533 -97.042463
204.383746 -62.876650 -92.535459
201.551528 -62.005346 -89.293441
196.917386 -60.579698 -85.338405
194.894273 -59.957307 -82.591426
189.287534 -58.232449 -78.410530
186.304662 -57.314798 -75.409463
187.759083 -57.762236 -74.229717
186.517079 -57.380146 -71.992348
185.253177 -56.991319 -69.780012
185.771281 -57.150708 -68.255605
186.277926 -57.306573 -66.726988
187.679746 -57.737829 -65.510732
187.256714 -57.607687 -63.657501
186.817492 -57.472565 -61.815282
186.362219 -57.332505 -59.984226
186.806755 -57.469262 -58.451009
187.239767 -57.602474 -56.914186
188.581138 -58.015133 -55.645292
187.149200 -57.574612 -53.566229
187.545534 -57.696540 -52.026743
187.004534 -57.530107 -50.235357
187.375868 -57.644344 -48.697162
187.735644 -57.755025 -47.155963
188.083840 -57.862144 -45.611856
188.420434 -57.965694 -44.064935
