117.465949 260.037220 -19.452373
101.475330 234.383409 -17.411914
96.253444 232.261706 -17.139853
92.225927 232.817376 -17.071838
88.910433 235.170492 -17.139853
85.205566 236.538024 -17.139853
81.479677 237.847194 -17.139853
77.116750 237.200078 -17.003823
73.381459 238.382112 -17.003823
69.349550 238.547308 -16.935807
65.594057 239.607175 -16.935807
61.325813 238.675328 -16.799777
57.336225 238.639070 -16.731762
48.571187 217.116995 -15.167410
43.534964 210.037774 -14.623287
52.393161 274.394373 -19.044281
49.450318 283.045863 -19.588404
43.748373 275.904685 -19.044281
38.846264 272.606991 -18.772220
33.808253 267.244758 -18.364128
28.838811 260.801345 -17.888021
24.268445 256.255951 -17.547945
19.848102 251.632554 -17.207869
15.516268 245.939043 -16.799777
11.462626 242.166147 -16.527716
7.531383 238.327573 -16.255654
3.723587 234.426235 -15.983593
0.040224 230.465065 -15.711532
-3.502285 225.449445 -15.371456
-6.887239 220.380633 -15.031379
-10.113861 215.262341 -14.691303
-13.368864 213.085470 -14.555272
-16.401801 208.870704 -14.283211
-19.399425 205.607489 -14.079165
-22.189345 201.310697 -13.807104
-24.974048 197.967810 -13.603058
-27.378497 192.612334 -13.262982
-30.088742 190.187672 -13.126951
-32.729650 187.725880 -12.990921
-36.047834 189.148716 -13.126951
-39.620848 191.490138 -13.330997
-46.320715 207.396988 -14.487257
-84.948439 354.107968 -24.825581
-90.004154 350.797204 -24.689551
-93.661476 342.603615 -24.213443
-98.474949 339.173942 -24.077413
-103.497120 336.631690 -24.009398
-107.847525 332.117775 -23.805352
-116.603928 340.766267 -24.553520
-162.476826 451.544003 -32.715355
-174.836727 462.936312 -33.735584
-189.428849 478.686734 -35.095890
-137.770728 332.772221 -24.553520
-203.975223 471.584729 -35.027875
-208.074168 461.047732 -34.483752
-210.194693 446.888897 -33.667569
-207.974143 424.715654 -32.239248
-161.643898 317.380940 -24.281459
-196.010776 370.356228 -28.566422
-209.491665 381.221515 -29.654667
-215.453787 377.883932 -29.654667
-201.561954 340.958453 -27.002070
-229.301656 374.332929 -29.926728
-240.497523 379.109694 -30.606881
-250.803497 381.957093 -31.151003
-248.362511 365.591575 -30.130774
-259.236115 368.992561 -30.742911
-272.035416 374.562086 -31.559095
-254.528489 339.123374 -28.906499
-92.313870 119.053224 -10.270309
-92.925171 116.031069 -10.134278
-94.736244 114.557150 -10.134278
-95.228318 111.537449 -9.998248
-98.287824 111.524885 -10.134278
-100.027455 109.967289 -10.134278
-101.059571 107.655160 -10.066263
-102.738078 106.054504 -10.066263
-103.685889 103.722088 -9.998248
-106.018635 102.775091 -10.066263
-107.619877 101.097144 -10.066263
-109.194565 99.394252 -10.066263
-110.742311 97.666836 -10.066263
-111.504201 95.267246 -9.998248
-114.524074 94.776226 -10.134278
-115.998625 92.965668 -10.134278
-113.503464 88.074045 -9.794202
-107.693314 80.887823 -9.182064
-106.529435 77.426576 -8.978018
-107.732456 75.743732 -8.978018
-108.083829 73.481274 -8.910003
-111.726018 73.418193 -9.114049
-112.865437 71.654220 -9.114049
-115.678158 70.915441 -9.250080
-127.081700 75.185849 -10.066263
-131.713125 75.158311 -10.338324
-133.751605 73.560969 -10.406339
-134.890550 71.451015 -10.406339
-135.996213 69.323432 -10.406339
-137.964192 67.617821 -10.474355
-139.009266 65.442432 -10.474355
-136.383158 61.608015 -10.202294
-127.262867 55.097933 -9.454125
-127.190934 52.710220 -9.386110
-126.148060 49.971020 -9.250080
-126.917408 47.983408 -9.250080
-129.532728 46.660191 -9.386110
-131.193492 44.943155 -9.454125
-138.524845 45.036182 -9.930232
-146.843381 45.202979 -10.474355
-147.535283 42.890887 -10.474355
-142.417116 38.987632 -10.066263
-161.371578 41.463202 -11.358554
-163.943101 39.389520 -11.494584
-150.910916 33.760242 -10.542370
-127.976504 26.525955 -8.910003
-168.556543 32.184371 -11.698630
-171.006875 29.876234 -11.834661
-153.718325 24.374093 -10.610385
-140.254321 19.986121 -9.658171
-146.489719 18.531931 -10.066263
-176.511937 19.518283 -12.106722
-184.742662 17.495855 -12.650844
-185.991836 14.637875 -12.718859
-188.190244 11.839927 -12.854890
-180.380387 8.506523 -12.310768
-176.502981 5.546830 -12.038706
-176.568332 2.773757 -12.038706
-186.566960 0.000000 -12.718859
-205.497607 -3.228214 -14.011150
-191.460861 -6.016900 -13.058936
-179.383810 -8.459526 -12.242752
-169.271648 -10.649669 -11.562599
-169.083488 -13.307159 -11.562599
-167.860352 -15.867475 -11.494584
-171.557045 -18.940074 -11.766645
-212.810707 -26.884244 -14.623287
-211.374442 -30.083038 -14.555272
-208.905040 -33.087308 -14.419242
-205.411070 -35.849971 -14.215196
-200.902572 -38.324215 -13.943135
-196.367996 -40.665857 -13.671073
-193.757705 -43.309978 -13.535043
-190.143164 -45.649335 -13.330997
-187.469997 -48.134114 -13.194966
-184.766164 -50.546303 -13.058936
-182.991353 -53.163903 -12.990921
-179.272977 -55.151569 -12.786875
-176.486869 -57.344060 -12.650844
-173.676586 -59.462786 -12.514813
-169.905053 -61.169583 -12.310768
-167.990005 -63.478133 -12.242752
-165.116962 -65.374430 -12.106722
-133.652312 -55.360600 -9.862217
-119.947446 -51.905895 -8.910003
-120.026639 -54.194106 -8.978018
-120.966051 -56.922303 -9.114049
-120.952979 -59.254253 -9.182064
-119.118389 -60.693851 -9.114049
-119.913794 -63.491086 -9.250080
-118.901726 -65.366777 -9.250080
-117.860321 -67.226340 -9.250080
-117.648584 -69.577179 -9.318095
-116.541199 -71.416539 -9.318095
-117.089805 -74.307450 -9.454125
-116.742061 -76.685201 -9.522141
-116.348305 -79.070227 -9.590156
-115.091971 -80.887992 -9.590156
-114.614382 -83.272223 -9.658171
-113.292259 -85.062234 -9.658171
-113.518834 -88.054233 -9.794202
-112.121733 -89.826447 -9.794202
-112.234427 -92.848392 -9.930232
-110.762181 -94.599840 -9.930232
-110.759355 -97.647507 -10.066263
-109.949829 -100.046647 -10.134278
-109.092081 -102.444283 -10.202294
-107.469498 -104.145188 -10.202294
-106.525867 -106.525867 -10.270309
-105.533791 -108.902424 -10.338324
-104.493169 -111.273923 -10.406339
-104.746825 -115.115257 -10.610385
-102.925750 -116.746347 -10.610385
-103.023113 -120.624567 -10.814431
-101.115715 -122.227903 -10.814431
-99.807163 -124.579704 -10.882447
-96.003574 -123.767062 -10.678401
-103.033129 -137.227244 -11.698630
-110.834156 -152.550128 -12.854890
-107.276982 -152.639706 -12.718859
-102.623060 -151.005247 -12.446798
-94.760998 -144.259833 -11.766645
-91.414201 -144.045731 -11.630615
-88.619063 -144.613167 -11.562599
-84.305195 -142.552299 -11.290538
-81.067057 -142.125681 -11.154508
-76.421453 -139.010106 -10.814431
-72.361164 -136.666457 -10.542370
-68.393817 -134.230423 -10.270309
-64.960218 -132.600303 -10.066263
-61.595029 -130.896100 -9.862217
-59.120842 -130.938152 -9.794202
-57.453090 -132.766257 -9.862217
-167.608990 -404.643897 -29.858713
-170.046973 -429.489626 -31.491080
-162.221896 -429.307790 -31.287034
-81.784746 -227.165872 -16.459700
-74.651650 -218.039627 -15.711532
-71.525924 -220.134159 -15.779547
-68.939461 -224.091221 -15.983593
-66.246120 -228.020639 -16.187639
-63.182878 -230.957705 -16.323670
-60.043586 -233.854327 -16.459700
-56.595859 -235.738718 -16.527716
-53.538968 -239.519575 -16.731762
-50.174789 -242.284891 -16.867792
-46.736848 -245.003137 -17.003823
-43.397333 -248.655506 -17.207869
-39.954485 -252.262689 -17.411914
-36.268336 -254.834608 -17.547945
-32.636222 -258.342300 -17.751991
-29.012252 -262.789693 -18.024052
-24.787062 -262.219721 -17.956037
-20.743513 -263.571319 -18.024052
-16.162439 -256.894619 -17.547945
-12.266312 -260.106525 -17.751991
-8.304575 -264.255875 -18.024052
-4.184142 -266.348840 -18.160083
-0.000000 -268.377071 -18.296113
4.560245 -290.290308 -19.792450
9.338730 -297.163211 -20.268557
14.146207 -299.969594 -20.472602
19.106760 -303.693251 -20.744664
24.344273 -309.323322 -21.152755
29.481581 -311.882547 -21.356801
35.143143 -318.322609 -21.832908
40.889060 -323.670238 -22.241000
46.670881 -327.926705 -22.581077
52.752406 -333.065582 -22.989168
58.492058 -335.144378 -23.193214
63.188218 -331.244241 -22.989168
67.574111 -326.303038 -22.717107
71.602929 -320.333091 -22.377031
76.159860 -317.228646 -22.241000
83.366301 -324.690305 -22.853138
108.727203 -397.439718 -28.090315
115.513192 -397.599014 -28.226346
122.330874 -397.642720 -28.362376
128.561683 -395.672174 -28.362376
133.791269 -390.772318 -28.158330
138.560934 -384.867800 -27.886269
147.057675 -389.176844 -28.362376
154.254273 -389.601821 -28.566422
161.500234 -389.896056 -28.770468
166.415847 -384.564332 -28.566422
174.078036 -385.540114 -28.838483
194.980127 -414.353862 -31.219018
200.147699 -408.552285 -31.014973
219.222565 -430.248510 -32.919401
139.120173 -262.752284 -20.268557
135.539935 -246.546226 -19.180312
138.901482 -243.520222 -19.112297
142.201533 -240.449661 -19.044281
144.918232 -236.485061 -18.908251
148.080314 -233.337237 -18.840236
151.179396 -230.148635 -18.772220
154.214981 -226.920454 -18.704205
156.612920 -222.837645 -18.568174
159.507357 -219.543042 -18.500159
162.936111 -217.010525 -18.500159
154.094908 -198.657959 -17.139853
150.958334 -188.426802 -16.459700
153.263442 -185.263677 -16.391685
156.154530 -182.833464 -16.391685
158.347308 -179.609765 -16.323670
161.148961 -177.100396 -16.323670
163.910853 -174.547329 -16.323670
166.632302 -171.951196 -16.323670
168.607167 -168.607167 -16.255654
171.951196 -166.632302 -16.323670
173.820049 -163.227891 -16.255654
177.100396 -161.148961 -16.323670
179.609765 -158.347308 -16.323670
181.316174 -154.858642 -16.255654
185.263677 -153.263442 -16.391685
186.869556 -149.710744 -16.323670
189.198056 -146.757056 -16.323670
191.479875 -143.767157 -16.323670
202.593028 -147.192450 -17.071838
217.940115 -153.170878 -18.160083
221.144297 -150.289509 -18.228098
224.311532 -147.345136 -18.296113
226.598256 -143.803626 -18.296113
229.679736 -140.747923 -18.364128
231.862173 -137.122907 -18.364128
234.854022 -133.958369 -18.432144
236.929175 -130.252916 -18.432144
239.827588 -126.982172 -18.500159
242.681494 -123.652397 -18.568174
245.489750 -120.264188 -18.636190
248.251224 -116.818159 -18.704205
251.874084 -113.725509 -18.840236
254.544963 -110.151442 -18.908251
258.087224 -106.903228 -19.044281
259.734547 -102.836182 -19.044281
234.252729 -88.516730 -17.071838
230.920680 -83.136560 -16.731762
231.254150 -79.175992 -16.663746
230.571555 -74.917240 -16.527716
232.673438 -71.579696 -16.595731
232.810989 -67.637845 -16.527716
232.882353 -63.709402 -16.459700
232.887986 -59.795472 -16.391685
232.828364 -55.897145 -16.323670
232.703978 -52.015502 -16.255654
232.515338 -48.151612 -16.187639
233.242986 -44.493479 -16.187639
234.895913 -40.995900 -16.255654
236.496271 -37.457330 -16.323670
238.043180 -33.878561 -16.391685
239.535772 -30.260405 -16.459700
239.981531 -26.494208 -16.459700
242.354591 -22.909254 -16.595731
257.603667 -20.273848 -17.615960
257.890334 -16.225085 -17.615960
257.116795 -12.125320 -17.547945
257.275531 -8.085209 -17.547945
256.373228 -4.027432 -17.479930
256.404860 -0.000000 -17.479930
256.647790 0.000000 -13.450341
247.629571 3.890076 -12.979317
246.539783 7.747825 -12.926981
243.395107 11.478222 -12.769973
241.191470 15.174481 -12.665301
239.927813 18.882728 -12.612965
237.613222 22.461063 -12.508294
237.231105 26.190558 -12.508294
235.799700 29.788430 -12.455958
236.291381 33.629243 -12.508294
234.747670 37.180378 -12.455958
235.118465 41.034741 -12.508294
235.425854 44.909884 -12.560629
237.625039 49.209780 -12.717637
239.746508 53.589694 -12.874645
237.904144 57.115732 -12.822309
236.010403 60.597172 -12.769973
234.066233 64.033275 -12.717637
233.031566 67.701928 -12.717637
231.939401 71.353877 -12.717637
230.790010 74.988220 -12.717637
229.583674 78.604061 -12.717637
229.260283 82.538781 -12.769973
227.935537 86.129662 -12.769973
227.483054 90.066912 -12.822309
227.885507 94.393268 -12.926981
230.957212 99.944111 -13.188661
244.831488 110.545656 -14.078372
245.775669 115.653251 -14.235380
244.825543 119.938796 -14.287716
262.486702 133.743655 -15.439107
259.471011 137.382829 -15.386771
254.655768 139.998193 -15.229763
251.557915 143.486101 -15.177427
248.413536 146.911356 -15.125091
239.263534 146.620882 -14.706404
236.087825 149.825890 -14.654068
234.539999 154.063983 -14.706404
225.483555 153.238466 -14.287716
228.767972 160.780824 -14.654068
226.214314 164.354320 -14.654068
221.209075 166.088472 -14.497060
214.627620 166.482247 -14.235380
209.648070 167.959776 -14.078372
213.909124 176.961017 -14.549396
211.103152 180.299125 -14.549396
204.499678 180.290718 -14.287716
202.381183 184.152707 -14.340052
199.463671 187.308854 -14.340052
197.214086 191.113745 -14.392388
194.187872 194.187872 -14.392388
191.113745 197.214086 -14.392388
187.308854 199.463671 -14.340052
183.480617 201.642566 -14.287716
178.309501 202.252428 -14.130708
177.056335 207.306333 -14.287716
173.141715 209.292380 -14.235380
170.457319 212.765513 -14.287716
167.706382 216.205764 -14.340052
164.889277 219.611898 -14.392388
161.419421 222.174773 -14.392388
157.909738 224.682830 -14.392388
154.361092 227.135450 -14.392388
150.774360 229.532027 -14.392388
147.150427 231.871971 -14.392388
144.011970 235.006176 -14.444724
139.794543 236.379663 -14.392388
136.064406 238.546298 -14.392388
132.300698 240.654076 -14.392388
128.971635 243.585031 -14.444724
125.129657 245.580779 -14.444724
111.591407 227.786402 -13.293333
111.401293 236.739799 -13.712021
117.531812 260.304110 -14.968083
107.876183 249.287150 -14.235380
96.304062 232.498574 -13.188661
92.640253 233.982569 -13.188661
89.659566 237.277157 -13.293333
85.921518 238.656196 -13.293333
81.515322 238.086773 -13.188661
78.074155 240.287541 -13.240997
73.996613 240.529750 -13.188661
69.930798 240.703387 -13.136325
65.877855 240.808882 -13.083989
61.590568 239.879426 -12.979317
57.815108 240.817256 -12.979317
48.361431 216.356605 -11.618582
42.729480 206.332853 -11.042887
46.219755 242.292442 -12.926981
49.104335 281.355151 -14.968083
43.897842 277.160064 -14.706404
38.694736 271.883388 -14.392388
33.668435 266.513106 -14.078372
28.820572 261.053476 -13.764356
24.152691 255.508778 -13.450341
19.744596 250.878875 -13.188661
15.550708 247.171424 -12.979317
11.384138 241.400065 -12.665301
7.496883 238.554688 -12.508294
3.670475 233.650483 -12.246614
0.000000 228.686163 -11.984934
-3.513617 223.665419 -11.723254
-6.900897 219.590090 -11.513910
-10.114007 214.467000 -11.252231
-13.356052 212.288360 -11.147559
-16.375478 208.070178 -10.938215
-19.265765 203.810504 -10.728871
-22.245537 201.497550 -10.624199
-24.907132 197.160253 -10.414855
-27.297378 191.801372 -10.153176
-29.838035 188.389937 -9.996168
-32.450067 185.930502 -9.891496
-35.740782 187.359742 -9.996168
-39.084311 188.730998 -10.100840
-45.311611 202.712495 -10.885879
-83.225780 346.660324 -18.683936
-114.488920 445.904901 -24.126876
-127.276016 465.242759 -25.278267
-143.483511 493.873483 -26.953017
-140.945930 458.151904 -25.121259
-112.636627 346.659891 -19.102624
-162.383697 474.283968 -26.272650
-170.489941 473.554028 -26.377322
-162.022602 428.780375 -24.022204
-157.709002 398.327469 -22.452125
-132.609165 320.146846 -18.160577
-181.644455 419.755569 -23.969868
-195.612387 433.233414 -24.911915
-209.621517 445.468400 -25.801626
-217.910779 444.811243 -25.958634
-158.225544 310.535115 -18.265249
-218.691033 413.035487 -24.493228
-237.660163 432.302232 -25.853962
-242.442033 425.046132 -25.644619
-221.129550 373.909648 -22.766141
-254.108077 414.666694 -25.487611
-260.590029 410.624181 -25.487611
-267.007685 406.480353 -25.487611
-262.694513 386.543238 -24.493228
-279.643790 397.892866 -25.487611
-285.272141 392.643417 -25.435275
-277.013985 368.947988 -24.179212
-92.422130 119.149892 -7.902729
-93.033482 116.124767 -7.798057
-94.209463 113.879678 -7.745722
-96.635142 113.145214 -7.798057
-99.060834 112.362460 -7.850393
-99.469346 109.315384 -7.745722
-101.174126 107.739501 -7.745722
-102.158984 105.419893 -7.693386
-104.508382 104.508382 -7.745722
-105.419893 102.158984 -7.693386
-107.011531 100.490517 -7.693386
-108.576766 98.797255 -7.693386
-110.864294 97.740023 -7.745722
-112.385851 95.986584 -7.745722
-113.879678 94.209463 -7.745722
-115.345406 92.409096 -7.745722
-118.360820 91.810063 -7.850393
-106.212300 79.746450 -6.960682
-106.643891 77.481322 -6.908346
-107.847758 75.796674 -6.908346
-109.025016 74.093324 -6.908346
-110.175373 72.371693 -6.908346
-108.769034 69.026928 -6.751338
-108.136900 66.266377 -6.646666
-123.776987 73.201506 -7.536378
-131.851045 75.206508 -7.955065
-133.016071 73.126204 -7.955065
-135.913387 71.962434 -8.059737
-136.137171 69.365353 -8.007401
-138.106716 67.657782 -8.059737
-139.152401 65.480149 -8.059737
-141.073906 63.697311 -8.112073
-139.307525 60.283749 -7.955065
-131.933714 54.648734 -7.484042
-129.061814 51.099187 -7.274698
-129.848523 49.065668 -7.274698
-132.482377 47.696591 -7.379370
-141.718317 48.521025 -7.850393
-151.960500 49.374960 -8.373753
-143.172470 44.045603 -7.850393
-135.215847 39.283835 -7.379370
-130.036796 35.574042 -7.065354
-131.546782 33.775473 -7.117690
-130.119001 31.238808 -7.013018
-127.669889 28.537601 -6.856010
-129.080268 26.731238 -6.908346
-131.446102 25.074685 -7.013018
-138.710057 24.208780 -7.379370
-141.045869 22.339471 -7.484042
-139.402028 19.839847 -7.379370
-158.520807 20.025835 -8.373753
-177.675179 19.615522 -9.368136
-183.926553 17.386178 -9.682152
-186.168054 14.651744 -9.786824
-189.365204 11.913849 -9.943832
-189.528977 8.937960 -9.943832
-178.666482 5.614820 -9.368136
-177.734128 2.792071 -9.315800
-178.754687 0.000000 -9.368136
-182.726660 -2.870500 -9.577480
-186.651576 -5.865762 -9.786824
-178.556247 -8.420499 -9.368136
-170.428683 -10.722464 -8.949449
-168.248135 -13.241415 -8.844777
-168.019391 -15.882509 -8.844777
-173.704784 -19.177187 -9.158792
-215.984599 -27.285200 -11.409238
-213.552043 -30.392956 -11.304567
-210.089301 -33.274876 -11.147559
-206.589446 -36.055630 -10.990551
-202.073858 -38.547650 -10.781207
-197.531926 -40.906895 -10.571863
-193.941281 -43.351012 -10.414855
-192.265390 -46.158836 -10.362519
-188.614872 -48.428068 -10.205511
-185.904457 -50.857704 -10.100840
-183.164729 -53.214273 -9.996168
-180.397312 -55.497460 -9.891496
-176.654082 -57.398391 -9.734488
-174.785925 -59.842598 -9.682152
-171.945212 -61.904086 -9.577480
-168.149167 -63.538275 -9.420472
-167.130407 -66.171609 -9.420472
-145.772915 -60.381119 -8.269081
-122.810581 -53.144884 -7.013018
-121.050513 -54.656402 -6.960682
-121.984247 -57.401430 -7.065354
-121.067576 -59.310394 -7.065354
-121.010819 -61.658092 -7.117690
-121.792515 -64.485818 -7.222362
-120.764591 -66.390896 -7.222362
-119.706870 -68.279593 -7.222362
-117.760050 -69.643100 -7.170026
-117.503088 -72.005985 -7.222362
-118.043912 -74.912945 -7.327034
-117.687330 -77.306127 -7.379370
-116.458540 -79.145142 -7.379370
-116.018043 -81.538846 -7.431706
-114.722974 -83.351119 -7.431706
-113.399598 -85.142827 -7.431706
-112.048243 -86.913526 -7.431706
-110.669241 -88.662781 -7.431706
-112.340763 -92.936362 -7.641050
-110.107759 -94.040910 -7.588714
-110.115211 -97.079617 -7.693386
-108.576766 -98.797255 -7.693386
-109.195440 -102.541344 -7.850393
-106.137035 -102.853943 -7.745722
-105.920657 -105.920657 -7.850393
-105.633779 -109.005604 -7.955065
-104.592171 -111.379349 -8.007401
-102.829797 -113.008471 -8.007401
-102.362862 -116.107876 -8.112073
-101.175048 -118.460761 -8.164409
-100.574967 -121.574250 -8.269081
-99.277339 -123.918376 -8.321417
-97.318667 -125.462469 -8.321417
-110.325916 -146.940324 -9.629816
-111.526145 -153.502570 -9.943832
-106.804404 -151.967296 -9.734488
-101.597664 -149.496423 -9.472808
-94.302509 -143.561850 -9.001784
-91.500811 -144.182207 -8.949449
-89.224807 -145.601652 -8.949449
-84.893413 -143.546922 -8.740105
-81.143864 -142.260338 -8.583097
-76.974952 -140.016917 -8.373753
-73.364300 -138.561050 -8.216745
-69.365353 -136.137171 -8.007401
-65.021765 -132.725935 -7.745722
-62.078583 -131.923705 -7.641050
-59.587807 -131.972363 -7.588714
-58.300731 -134.725041 -7.693386
-171.207222 -413.330798 -23.446508
-170.943324 -431.753551 -24.336220
-159.551669 -422.241241 -23.655852
-80.847412 -224.562327 -12.508294
-74.722379 -218.246209 -12.089606
-71.593691 -220.342725 -12.141942
-69.004778 -224.303536 -12.298950
-67.144711 -231.113610 -12.612965
-63.506252 -232.139762 -12.612965
-60.348823 -235.043148 -12.717637
-56.882606 -236.933106 -12.769973
-53.807538 -240.721088 -12.926981
-50.424836 -243.492324 -13.031653
-46.968253 -246.216206 -13.136325
-43.610143 -249.874854 -13.293333
-40.148560 -253.488030 -13.450341
-36.443406 -256.064718 -13.555013
-32.917466 -260.568576 -13.764356
-29.149324 -264.031272 -13.921364
-25.092484 -265.450754 -13.973700
-20.606463 -261.829938 -13.764356
-16.553979 -263.117967 -13.816692
-12.466102 -264.343047 -13.869028
-8.375179 -266.502518 -13.973700
-4.235164 -269.596711 -14.130708
-0.000000 -279.616270 -14.654068
4.595937 -292.562357 -15.334435
9.347578 -297.444758 -15.596115
14.159610 -300.253800 -15.753123
19.124863 -303.980985 -15.962467
24.288987 -308.620839 -16.224146
29.697472 -314.166436 -16.538162
35.176440 -318.624204 -16.799842
41.178123 -325.958409 -17.218530
46.996516 -330.214733 -17.480209
52.958606 -334.367480 -17.741889
58.547476 -335.461910 -17.846561
63.248086 -331.558078 -17.689553
68.043152 -328.567955 -17.584881
71.670769 -320.636590 -17.218530
76.698268 -319.471279 -17.218530
86.425475 -336.605002 -18.212913
109.884263 -401.669214 -21.824094
116.179852 -399.893674 -21.824094
122.740414 -398.973950 -21.876430
128.992082 -396.996807 -21.876430
134.241503 -392.087344 -21.719422
139.707035 -388.051217 -21.614750
146.491024 -387.677245 -21.719422
153.297561 -387.185442 -21.824094
160.888930 -388.420236 -22.033438
167.366725 -386.761681 -22.085774
177.119619 -392.276473 -22.556797
196.440448 -417.457203 -24.179212
201.655338 -411.629759 -24.022204
218.523531 -428.876578 -25.225931
135.980963 -256.823348 -15.229763
135.187259 -245.904711 -14.706404
139.033084 -243.750945 -14.706404
141.827918 -239.817912 -14.601732
145.055535 -236.709119 -14.549396
148.755705 -234.401483 -14.549396
150.774360 -229.532027 -14.392388
154.922405 -227.961397 -14.444724
157.909738 -224.682830 -14.392388
160.245462 -220.558956 -14.287716
163.690082 -218.014720 -14.287716
153.628839 -198.057105 -13.136325
151.725745 -189.384688 -12.717637
154.681753 -186.978119 -12.717637
156.951037 -183.766053 -12.665301
158.497334 -179.779936 -12.560629
161.973732 -178.006807 -12.612965
164.066150 -174.712704 -12.560629
166.790177 -172.114111 -12.560629
169.473052 -169.473052 -12.560629
172.831253 -167.485136 -12.612965
175.440674 -164.749759 -12.612965
178.006807 -161.973732 -12.612965
180.529020 -159.157740 -12.612965
183.006689 -156.302479 -12.612965
185.439205 -153.408652 -12.612965
187.825966 -150.476974 -12.612965
190.166384 -147.508168 -12.612965
192.459881 -144.502966 -12.612965
207.632424 -150.853786 -13.450341
218.963630 -153.890217 -14.026036
221.353820 -150.431901 -14.026036
224.524056 -147.484738 -14.078372
226.812946 -143.939873 -14.078372
229.045874 -140.359492 -14.078372
232.081851 -137.252824 -14.130708
235.943975 -134.580067 -14.235380
238.028759 -130.857418 -14.235380
240.937368 -127.569769 -14.287716
243.801208 -124.222920 -14.340052
246.619137 -120.817468 -14.392388
249.390017 -117.354034 -14.444724
252.132586 -113.789255 -14.497060
254.805371 -110.211334 -14.549396
258.350420 -106.959425 -14.654068
261.855727 -103.623153 -14.758740
263.451064 -99.497319 -14.758740
266.860699 -96.023154 -14.863412
268.336044 -91.819642 -14.863412
264.996145 -86.051337 -14.601732
256.769745 -78.943634 -14.078372
247.428772 -71.837876 -13.502677
245.636783 -67.152542 -13.345669
249.563163 -64.030503 -13.502677
253.451357 -60.801504 -13.659685
254.375117 -56.812962 -13.659685
258.169863 -53.417419 -13.816692
259.958032 -49.542626 -13.869028
261.687932 -45.624793 -13.921364
260.399568 -41.196653 -13.816692
261.014532 -37.101392 -13.816692
261.565094 -32.996977 -13.816692
261.058502 -28.775009 -13.764356
259.489846 -24.483319 -13.659685
259.842401 -20.404409 -13.659685
261.127513 -16.382995 -13.712021
260.355102 -12.232494 -13.659685
260.515122 -8.141504 -13.659685
259.612355 -4.032995 -13.607349
258.645046 0.045142 -13.555013
259.825378 -0.045348 -9.527364
250.801166 3.896116 -9.197571
246.713665 7.710187 -9.050996
244.565668 11.490645 -8.977709
242.360274 15.205549 -8.904421
241.095275 18.932271 -8.867778
239.773247 22.623023 -8.831134
238.395007 26.276940 -8.794490
237.952857 30.018244 -8.794490
236.462612 33.611508 -8.757846
235.905493 37.321555 -8.757846
234.305691 40.850751 -8.721203
234.616790 44.713109 -8.757846
236.821324 49.000234 -8.867778
237.973045 53.149670 -8.941065
237.108848 56.881031 -8.941065
236.186148 60.598358 -8.941065
233.277261 63.773678 -8.867778
231.287072 67.151334 -8.831134
230.203771 70.775949 -8.831134
229.063671 74.383101 -8.831134
227.867053 77.971900 -8.831134
227.554520 81.879808 -8.867778
226.240335 85.443977 -8.867778
226.728761 89.722495 -8.941065
226.214816 93.654992 -8.977709
228.384670 98.783551 -9.124283
245.932992 110.991334 -9.893801
245.063569 115.265924 -9.930445
244.120319 119.540482 -9.967089
260.912775 132.884344 -10.736607
257.026823 136.031267 -10.663319
253.982626 139.570410 -10.626676
250.022747 142.552629 -10.553388
246.892530 145.953679 -10.516744
237.752262 145.637701 -10.223595
235.435353 149.354185 -10.223595
233.060355 153.033817 -10.223595
224.841490 152.744759 -9.967089
227.320745 159.704430 -10.186951
224.784173 163.255327 -10.186951
220.593634 165.566188 -10.113664
215.596625 167.173624 -10.003732
207.484071 166.166638 -9.747227
213.319619 176.410633 -10.150307
209.762356 179.090670 -10.113664
204.674276 180.381169 -10.003732
201.815721 183.573800 -10.003732
198.907372 186.721136 -10.003732
195.949945 189.822402 -10.003732
193.650926 193.583341 -10.040376
189.890790 195.883673 -10.003732
186.106342 198.113822 -9.967089
182.971546 201.012613 -9.967089
179.130606 203.112315 -9.930445
175.269013 205.141136 -9.893801
172.662304 208.638719 -9.930445
169.988807 212.104839 -9.967089
166.636238 214.748740 -9.967089
163.842710 218.138698 -10.003732
160.983655 221.493687 -10.040376
156.909962 223.177484 -10.003732
153.946935 226.441013 -10.040376
150.371162 228.831170 -10.040376
146.758287 231.164868 -10.040376
143.631498 234.293505 -10.077020
138.407107 233.940441 -9.967089
135.706011 237.821508 -10.040376
131.953731 239.923746 -10.040376
127.701124 241.083696 -10.003732
124.806274 244.840454 -10.077020
104.672478 213.568755 -8.721203
108.966693 231.461143 -9.380789
104.906220 232.233443 -9.344146
106.407049 245.774485 -9.820514
96.794651 233.567649 -9.270858
92.745949 234.130131 -9.234215
89.056951 235.558037 -9.234215
85.684654 237.868012 -9.270858
81.290085 237.293756 -9.197571
78.170759 240.442059 -9.270858
73.796396 239.730049 -9.197571
69.742805 239.900018 -9.160927
66.229879 241.929758 -9.197571
61.675566 240.036538 -9.087640
57.897627 240.975683 -9.087640
52.141900 233.078361 -8.757846
43.201063 208.426842 -7.805110
44.232723 231.656383 -8.647915
48.671882 278.590214 -10.370170
43.820467 276.359357 -10.260238
38.628321 271.077560 -10.040376
33.863966 267.685159 -9.893801
28.996169 262.224402 -9.673939
24.214219 255.683366 -9.417433
19.802230 251.050993 -9.234215
15.478915 245.346988 -9.014352
11.481516 242.565220 -8.904421
7.512230 237.721490 -8.721203
3.729723 234.812553 -8.611272
0.040116 229.845527 -8.428053
-3.492534 224.821763 -8.244834
-6.898589 220.743805 -8.098260
-10.130528 215.617078 -7.915041
-13.328321 212.439253 -7.805110
-16.507062 210.211170 -7.731823
-19.525265 206.941225 -7.621891
-22.225912 201.642443 -7.438673
-24.765051 196.311107 -7.255454
-27.282981 191.940363 -7.108879
-30.138326 190.501089 -7.072236
-32.783586 188.035239 -6.998948
-36.107239 189.460420 -7.072236
-39.483660 190.827100 -7.145523
-44.872262 200.911669 -7.548604
-83.223476 346.917453 -13.081804
-114.739514 447.204919 -16.929393
-125.702662 459.806833 -17.479049
-143.497663 494.244157 -18.871510
-127.455443 414.557828 -15.903370
-107.407963 330.764139 -12.752011
-163.061568 476.535248 -18.468429
-171.541580 476.736123 -18.578360
-181.127109 479.592115 -18.798223
-170.252112 430.227117 -16.966037
-141.438152 341.630539 -13.558172
-203.121196 469.610246 -18.761579
-210.883534 467.272685 -18.798223
-216.495776 460.285449 -18.651648
-222.380456 454.135594 -18.541717
-187.761496 368.661737 -15.170495
-173.895641 328.570372 -13.631460
-239.194806 435.273673 -18.211923
-246.002279 431.462866 -18.211923
-239.526770 405.179031 -17.259187
-256.823473 419.262053 -18.028705
-262.306632 413.488614 -17.955417
-267.672053 407.646785 -17.882130
-265.057082 390.166115 -17.295831
-280.918944 399.855555 -17.918774
-286.577696 394.585166 -17.882130
-286.141564 381.243345 -17.479049
-93.078355 120.039147 -5.569844
-93.702992 117.002296 -5.496556
-94.255501 113.975825 -5.423269
-95.385248 111.721255 -5.386625
-98.449796 111.708671 -5.459913
-99.519862 109.409256 -5.423269
-101.226110 107.832568 -5.423269
-102.212063 105.511509 -5.386625
-104.563264 104.599770 -5.423269
-105.475824 102.248887 -5.386625
-107.068867 100.579530 -5.386625
-108.635493 98.885358 -5.386625
-110.924806 97.827785 -5.423269
-111.687952 95.424240 -5.386625
-113.942917 94.295280 -5.423269
-116.189783 93.118869 -5.459913
-116.848579 90.669718 -5.423269
-107.071742 80.420964 -4.910257
-107.513359 78.141701 -4.873613
-107.909992 75.868553 -4.836970
-107.435517 73.040516 -4.763682
-108.569533 71.343982 -4.763682
-106.302092 67.487387 -4.617107
-108.201000 66.331637 -4.653751
-114.389995 67.677005 -4.873613
-131.062218 74.786889 -5.533200
-133.096384 73.200610 -5.569844
-134.229750 71.100992 -5.569844
-136.220325 69.437672 -5.606487
-137.294199 67.289450 -5.606487
-139.238344 65.550276 -5.643131
-141.161505 63.766526 -5.679775
-142.145691 61.541390 -5.679775
-143.094805 59.301071 -5.679775
-134.717734 53.365725 -5.313338
-133.669838 50.536286 -5.240050
-143.849035 51.817202 -5.606487
-151.262952 51.818381 -5.862993
-153.958947 50.054004 -5.936281
-155.681267 47.923556 -5.972925
-157.374412 45.751280 -6.009568
-158.073627 43.273706 -6.009568
-161.637507 41.531530 -6.119499
-163.241591 39.220973 -6.156143
-164.812732 36.870214 -6.192787
-166.350062 34.479721 -6.229430
-168.834313 32.237408 -6.302718
-172.273101 30.097453 -6.412649
-172.724598 27.387792 -6.412649
-178.080149 25.376270 -6.595868
-179.448199 22.701400 -6.632511
-181.769188 20.099617 -6.705799
-185.047105 17.524687 -6.815730
-185.302090 14.583591 -6.815730
-188.500369 11.859438 -6.925661
-190.659832 8.991289 -6.998948
-184.784528 5.807088 -6.779086
-179.856920 2.825418 -6.595868
-180.878439 0.000000 -6.632511
-186.851355 -2.935296 -6.852374
-184.784528 -5.807088 -6.779086
-183.672299 -8.661766 -6.742442
-183.513586 -11.545696 -6.742442
-171.354621 -13.485901 -6.302718
-180.075694 -17.022165 -6.632511
-216.537962 -23.906014 -7.988328
-215.144301 -27.179046 -7.951685
-212.712132 -30.273419 -7.878397
-209.249301 -33.141833 -7.768466
-205.749574 -35.909049 -7.658535
-202.215273 -38.574626 -7.548604
-196.691597 -40.732872 -7.365385
-194.077005 -43.381350 -7.292098
-191.428224 -45.957850 -7.218811
-187.778935 -48.213436 -7.108879
-185.070646 -50.629600 -7.035592
-182.333262 -52.972709 -6.962305
-179.568406 -55.242455 -6.889017
-176.777707 -57.438559 -6.815730
-173.962793 -59.560777 -6.742442
-171.125294 -61.608897 -6.669155
-168.266841 -63.582741 -6.595868
-166.318216 -65.850040 -6.559224
-155.107520 -64.247639 -6.156143
-122.896526 -53.182076 -4.910257
-120.224435 -54.283414 -4.836970
-120.261176 -56.590614 -4.873613
-119.357452 -58.472613 -4.873613
-119.314688 -60.793870 -4.910257
-118.345060 -62.660484 -4.910257
-117.346232 -64.511637 -4.910257
-117.186498 -66.841999 -4.946901
-116.122133 -68.674438 -4.946901
-117.585319 -72.056376 -5.056832
-115.595239 -73.358969 -5.020188
-115.263952 -75.714265 -5.056832
-114.886989 -78.077117 -5.093476
-114.464034 -80.446670 -5.130119
-112.377838 -81.647278 -5.093476
-111.081514 -83.402360 -5.093476
-111.337032 -86.361854 -5.166763
-111.526596 -89.349652 -5.240050
-110.109394 -91.090413 -5.240050
-110.184814 -94.106722 -5.313338
-109.442664 -96.486688 -5.349981
-107.913616 -98.193835 -5.349981
-107.814899 -101.244929 -5.423269
-105.493668 -102.230476 -5.386625
-105.288151 -105.288151 -5.459913
-105.012258 -108.364244 -5.533200
-103.981279 -110.728815 -5.569844
-102.229198 -112.348422 -5.569844
-102.434497 -116.189130 -5.679775
-99.298817 -116.263977 -5.606487
-99.371359 -120.119339 -5.716419
-98.097170 -122.445284 -5.753062
-95.549286 -123.181397 -5.716419
-114.603243 -152.637189 -6.998948
-110.429413 -151.993047 -6.889017
-106.304529 -151.256045 -6.779086
-101.668764 -149.601043 -6.632511
-94.917158 -144.497563 -6.339362
-91.564845 -144.283109 -6.266074
-89.809396 -146.555614 -6.302718
-84.444124 -142.787215 -6.082856
-80.705524 -141.491846 -5.972925
-76.547390 -139.239185 -5.826350
-72.948026 -137.774846 -5.716419
-68.052840 -133.561218 -5.496556
-64.627624 -131.921395 -5.386625
-61.271040 -130.207589 -5.276694
-58.807032 -130.243138 -5.240050
-57.944650 -133.902185 -5.349981
-174.004021 -420.082867 -16.672887
-170.695076 -431.126548 -17.002681
-157.190664 -415.993022 -16.306450
-80.903991 -224.719479 -8.757846
-74.774671 -218.398941 -8.464697
-71.643794 -220.496925 -8.501340
-69.053069 -224.460508 -8.611272
-66.634092 -229.356050 -8.757846
-63.550695 -232.302217 -8.831134
-60.391056 -235.207635 -8.904421
-56.689125 -236.127200 -8.904421
-53.409200 -238.939026 -8.977709
-50.257473 -242.684159 -9.087640
-47.188378 -247.370140 -9.234215
-43.640662 -250.049721 -9.307502
-40.020327 -252.678401 -9.380789
-36.468910 -256.243917 -9.490721
-32.815253 -259.759478 -9.600652
-29.060062 -263.222752 -9.710583
-25.110044 -265.636522 -9.783870
-20.777697 -264.005666 -9.710583
-16.502816 -262.304746 -9.637295
-12.568975 -266.524477 -9.783870
-8.412430 -267.687857 -9.820514
-4.348005 -276.779815 -10.150307
-0.000000 -286.807249 -10.516744
4.583456 -291.767892 -10.699963
9.322730 -296.654080 -10.883181
14.169519 -300.463923 -11.029756
19.138246 -304.193716 -11.176331
24.227578 -307.840570 -11.322906
29.624210 -313.391402 -11.542768
35.201057 -318.847183 -11.762630
40.956442 -324.203624 -11.982493
46.888598 -329.456464 -12.202355
52.839338 -333.614451 -12.385574
58.588448 -335.696673 -12.495505
63.292348 -331.790109 -12.385574
67.685468 -326.840763 -12.238999
71.502929 -319.885716 -12.019136
76.518654 -318.723134 -12.019136
84.497774 -329.097103 -12.458861
110.488553 -403.878129 -15.353714
116.261157 -400.173527 -15.280427
121.944781 -396.387706 -15.207139
127.229496 -391.572126 -15.097208
132.069548 -385.743585 -14.950633
141.835867 -393.964276 -15.353714
146.593541 -387.948549 -15.207139
153.404842 -387.456402 -15.280427
162.531228 -392.385096 -15.573576
168.674495 -389.783759 -15.573576
185.468330 -410.766819 -16.526313
195.726934 -415.940908 -16.856106
217.183990 -443.327681 -18.101992
230.925969 -453.217732 -18.651648
133.270432 -251.704045 -10.443457
135.763295 -246.952517 -10.333526
139.130382 -243.921526 -10.296882
141.927172 -239.985741 -10.223595
145.157047 -236.874772 -10.186951
147.788873 -232.878000 -10.113664
151.428529 -230.527904 -10.113664
153.907411 -226.467878 -10.040376
156.871007 -223.204866 -10.003732
160.357604 -220.713307 -10.003732
163.204618 -217.368143 -9.967089
153.123855 -197.406085 -9.160927
151.207103 -188.737316 -8.867778
153.516010 -185.568978 -8.831134
155.762850 -182.374865 -8.794490
157.947386 -179.156142 -8.757846
160.741963 -176.653111 -8.757846
163.496879 -174.106492 -8.757846
165.516009 -170.799272 -8.721203
168.178388 -168.178388 -8.721203
171.516916 -166.211455 -8.757846
174.106492 -163.496879 -8.757846
176.653111 -160.741963 -8.757846
178.406535 -157.286518 -8.721203
180.855075 -154.464826 -8.721203
183.258991 -151.605022 -8.721203
186.397597 -149.332635 -8.757846
189.509841 -146.998901 -8.794490
190.996273 -143.404058 -8.757846
204.543834 -148.609794 -9.270858
218.299265 -153.423293 -9.783870
220.682202 -149.975470 -9.783870
223.845935 -147.039296 -9.820514
226.127913 -143.505137 -9.820514
228.354097 -139.935571 -9.820514
232.244266 -137.348876 -9.893801
234.372997 -133.683997 -9.893801
237.319618 -130.467564 -9.930445
240.222808 -127.191430 -9.967089
242.191008 -123.402482 -9.967089
244.996876 -120.022731 -10.003732
248.660325 -117.010667 -10.077020
250.467572 -113.090445 -10.077020
254.047297 -109.936082 -10.150307
257.589275 -106.696971 -10.223595
259.233420 -102.637772 -10.223595
262.683234 -99.259723 -10.296882
267.030678 -96.136960 -10.406813
270.398689 -92.578164 -10.480101
273.720321 -88.937124 -10.553388
276.038667 -84.920582 -10.590032
275.419190 -80.016672 -10.516744
263.147325 -71.988962 -10.003732
263.277682 -67.598219 -9.967089
263.335272 -63.221205 -9.930445
264.295820 -59.077115 -9.930445
263.234028 -54.513146 -9.857158
262.094553 -49.997210 -9.783870
261.863094 -45.702426 -9.747227
261.561626 -41.427292 -9.710583
262.180069 -37.313749 -9.710583
262.733824 -33.191001 -9.710583
260.242872 -28.731081 -9.600652
259.667161 -24.545774 -9.564008
262.013171 -20.620884 -9.637295
262.304746 -16.502816 -9.637295
259.536944 -12.239452 -9.527364
258.698339 -8.129923 -9.490721
257.794918 -4.049766 -9.454077
259.825382 -0.000000 -9.527364
258.943197 0.000000 -5.424087
251.913650 3.957376 -5.277490
248.822551 7.819564 -5.214663
245.673017 11.585645 -5.151835
243.465114 15.317527 -5.109950
241.201084 18.982937 -5.068066
240.873156 22.769217 -5.068066
239.492054 26.440169 -5.047123
238.055307 30.073379 -5.026181
238.543374 33.949750 -5.047123
236.005742 37.379637 -5.005238
234.404600 40.910152 -4.984296
234.715165 44.774312 -5.005238
233.982924 48.455534 -5.005238
235.144357 52.560991 -5.047123
236.234069 56.714782 -5.089008
234.345718 60.169754 -5.068066
232.407356 63.579458 -5.047123
230.419939 66.943180 -5.026181
229.340014 70.554201 -5.026181
229.154352 74.456762 -5.047123
227.956566 78.046977 -5.047123
227.643209 81.956598 -5.068066
226.327807 85.522152 -5.068066
226.815707 89.802691 -5.109950
226.300843 93.736878 -5.130893
230.305890 99.662258 -5.256547
246.024916 111.084509 -5.654453
246.058982 115.786568 -5.696338
246.903421 120.956738 -5.759165
261.007656 132.990043 -6.136129
255.352252 135.202058 -6.052359
254.073203 139.677925 -6.073302
249.242570 142.165452 -6.010475
246.118230 145.553916 -5.989532
236.129527 144.700360 -5.801050
234.671685 148.927180 -5.821993
233.139111 153.143772 -5.842935
224.089678 152.291188 -5.675396
227.395739 159.816402 -5.821993
224.857399 163.368463 -5.821993
219.865050 165.079349 -5.759165
214.875027 166.674156 -5.696338
207.548959 166.278071 -5.570684
212.615015 175.890437 -5.780108
209.826018 179.208349 -5.780108
203.985464 179.837377 -5.696338
201.875005 183.692121 -5.717281
198.235981 186.155977 -5.696338
193.133607 187.159486 -5.633511
192.997814 192.997814 -5.717281
189.246767 195.287514 -5.696338
186.155977 198.235981 -5.696338
182.346391 200.396067 -5.675396
178.515044 202.485571 -5.654453
175.312516 205.264583 -5.654453
172.704016 208.763294 -5.675396
170.653810 213.010774 -5.717281
167.286929 215.665009 -5.717281
165.079349 219.865050 -5.759165
161.017838 221.622040 -5.738223
157.516885 224.123858 -5.738223
153.977068 226.570376 -5.738223
150.399260 228.960991 -5.738223
146.784343 231.295114 -5.738223
143.133208 233.572168 -5.738223
139.446758 235.791591 -5.738223
135.725902 237.952837 -5.738223
131.971557 240.055371 -5.738223
128.652477 242.982247 -5.759165
124.366115 244.082245 -5.738223
118.757525 242.414268 -5.654453
101.738933 216.206238 -5.005238
116.844446 258.781763 -5.947647
113.559386 262.420257 -5.989532
98.710672 238.308643 -5.403144
93.483129 236.111433 -5.319375
90.116317 238.485912 -5.340317
86.359226 239.871977 -5.340317
82.580826 241.198856 -5.340317
78.782052 242.466223 -5.340317
74.963839 243.673765 -5.340317
70.848199 243.861102 -5.319375
66.481425 243.015161 -5.277490
62.656107 244.029425 -5.277490
58.115147 242.067009 -5.214663
54.305754 242.949979 -5.214663
49.469248 238.877964 -5.109950
45.336333 237.661380 -5.068066
44.176088 253.117572 -5.382202
43.948444 277.479555 -5.884820
38.739341 272.196796 -5.759165
33.832551 267.812221 -5.654453
28.963505 262.348142 -5.528799
24.180532 255.803311 -5.382202
19.767356 251.168071 -5.277490
15.505857 246.458538 -5.172778
11.397261 241.678334 -5.068066
7.505525 238.829677 -5.005238
3.674706 233.919818 -4.900526
0.000000 229.949557 -4.816757
-3.564779 226.922217 -4.753929
-6.940255 220.842505 -4.628275
-10.219858 216.711564 -4.544505
-13.434224 213.530879 -4.481678
-16.472797 209.306726 -4.397908
-19.570236 207.031473 -4.356023
-22.161469 200.736079 -4.230369
-24.935843 197.387526 -4.167542
-27.469714 193.012273 -4.083772
-30.185230 190.582043 -4.041887
-32.659365 187.129722 -3.979060
-35.969322 188.557789 -4.020945
-39.534850 190.906570 -4.083772
-44.491461 199.043356 -4.272254
-88.456389 368.447376 -7.937177
-115.118165 448.355650 -9.696340
-126.103655 460.957328 -10.010477
-143.091048 492.522619 -10.743461
-151.397556 492.125448 -10.785346
-108.132228 332.796777 -7.329847
-161.599343 471.993055 -10.450268
-170.686469 474.099907 -10.554980
-179.525839 475.101347 -10.638749
-157.522754 397.857060 -8.963356
-148.831207 359.310318 -8.146601
-134.603608 311.050585 -7.099480
-133.301411 295.229899 -6.785344
-136.219492 289.481155 -6.701574
-139.430131 284.612308 -6.638747
-144.337316 283.277934 -6.659690
-149.704701 282.742978 -6.701574
-189.769319 345.189110 -8.251313
-244.702903 429.009859 -10.345555
-200.518331 339.057981 -8.251313
-254.923378 415.997145 -10.219901
-260.890419 411.097519 -10.198958
-267.864375 407.784539 -10.219901
-264.683209 389.469515 -9.863880
-279.966143 398.351528 -10.198958
-286.776295 394.713707 -10.219901
-289.939366 386.162980 -10.115189
-92.528668 119.287239 -3.162305
-93.765830 117.038887 -3.141363
-94.955345 114.781294 -3.120421
-95.447925 111.755162 -3.078536
-97.852691 110.992091 -3.099478
-100.256872 110.180863 -3.120421
-101.290752 107.863695 -3.099478
-102.972505 106.259383 -3.099478
-103.921900 103.921900 -3.078536
-104.823445 101.580985 -3.057593
-106.406078 99.921958 -3.057593
-107.962457 98.238277 -3.057593
-109.492197 96.530357 -3.057593
-111.755162 95.447925 -3.078536
-110.159229 91.131639 -2.994766
-113.137591 90.640302 -3.036651
-109.017477 84.562623 -2.890054
-106.334733 79.838376 -2.785342
-106.766822 77.570637 -2.764399
-107.154107 75.309168 -2.743457
-108.323793 73.616774 -2.743457
-108.631127 71.357313 -2.722515
-107.206129 68.035078 -2.659687
-108.261552 66.342764 -2.659687
-125.640775 74.303747 -3.057593
-130.266151 74.302501 -3.141363
-132.293288 72.728851 -3.162305
-134.302914 71.109733 -3.183248
-136.294100 69.445313 -3.204190
-136.470255 66.856088 -3.183248
-137.503549 64.704258 -3.183248
-140.325322 63.359312 -3.225133
-141.303215 61.147362 -3.225133
-143.169921 59.302923 -3.246075
-138.506313 54.838529 -3.120421
-131.868681 49.829022 -2.952881
-148.626558 53.508853 -3.308902
-150.394581 51.491574 -3.329845
-153.086517 49.740825 -3.371730
-153.848926 47.330110 -3.371730
-156.493542 45.465577 -3.413614
-158.152724 43.265689 -3.434557
-160.749542 41.273467 -3.476442
-162.350163 38.976826 -3.497384
-163.918058 36.640027 -3.518327
-166.431369 34.466280 -3.560211
-167.934281 32.035177 -3.581154
-170.386537 29.737211 -3.623039
-172.807552 27.370027 -3.664923
-180.144788 25.638400 -3.811520
-181.517172 22.930952 -3.832463
-180.861219 19.967265 -3.811520
-186.129257 17.594395 -3.916233
-186.382656 14.668633 -3.916233
-187.587875 11.802029 -3.937175
-189.747452 8.948263 -3.979060
-192.862459 6.060947 -4.041887
-193.933525 3.046551 -4.062829
-199.956137 0.000000 -4.188484
-188.935238 -2.968032 -3.958117
-184.868160 -5.809716 -3.874348
-183.755428 -8.665686 -3.853405
-183.596643 -11.550922 -3.853405
-184.389258 -14.511749 -3.874348
-190.110632 -17.970746 -4.000002
-218.623452 -24.136254 -4.607332
-215.241674 -27.191347 -4.544505
-212.808404 -30.287121 -4.502620
-210.331477 -33.313233 -4.460735
-205.842695 -35.925301 -4.376966
-201.324723 -38.404745 -4.293196
-197.759626 -40.954050 -4.230369
-194.164843 -43.400984 -4.167542
-190.542706 -45.745256 -4.104714
-187.863923 -48.235257 -4.062829
-185.154408 -50.652514 -4.020945
-182.415785 -52.996685 -3.979060
-180.605261 -55.561433 -3.958117
-176.857716 -57.464555 -3.895290
-173.095650 -59.263887 -3.832463
-171.202744 -61.636781 -3.811520
-168.342997 -63.611518 -3.769636
-165.463918 -65.511799 -3.727751
-150.559336 -62.363719 -3.413614
-121.117042 -52.412024 -2.764399
-121.190051 -54.719406 -2.785342
-120.315605 -56.616226 -2.785342
-120.309304 -58.938920 -2.806284
-122.041122 -62.183058 -2.869112
-121.932909 -64.560152 -2.890054
-119.151571 -65.504130 -2.848169
-118.107977 -67.367601 -2.848169
-117.895796 -69.723379 -2.869112
-121.048350 -74.178524 -2.973824
-118.179985 -74.999299 -2.931939
-116.987368 -76.846337 -2.931939
-120.727281 -82.046175 -3.057593
-119.423661 -83.932355 -3.057593
-118.090576 -85.797826 -3.057593
-113.530317 -85.240973 -2.973824
-116.127313 -90.077577 -3.078536
-117.038887 -93.765830 -3.141363
-118.633015 -98.141766 -3.225133
-115.556358 -98.694453 -3.183248
-113.991877 -100.497358 -3.183248
-116.836083 -106.312656 -3.308902
-118.067018 -110.872310 -3.392672
-113.439071 -109.930107 -3.308902
-115.940079 -115.940079 -3.434557
-118.974989 -122.772665 -3.581154
-117.031882 -124.626297 -3.581154
-118.424224 -130.146523 -3.685866
-117.687696 -133.490487 -3.727751
-115.576399 -135.322577 -3.727751
-113.436586 -137.121278 -3.727751
-116.269629 -145.128220 -3.895290
-111.524619 -143.776673 -3.811520
-109.852803 -146.310197 -3.832463
-110.479392 -152.061838 -3.937175
-106.352642 -151.324502 -3.874348
-101.152819 -148.841853 -3.769636
-94.960117 -144.562962 -3.623039
-91.070577 -143.504268 -3.560211
-88.805275 -144.917038 -3.560211
-84.482343 -142.851840 -3.476442
-80.742051 -141.555884 -3.413614
-77.063683 -140.178319 -3.350787
-72.513214 -136.953630 -3.246075
-68.537531 -134.512478 -3.162305
-64.656875 -131.981102 -3.078536
-61.724457 -131.171148 -3.036651
-58.833647 -130.302085 -2.994766
-57.970875 -133.962789 -3.057593
-170.256779 -411.036225 -9.319377
-170.404287 -430.392100 -9.696340
-156.555013 -414.310821 -9.277492
-81.279271 -225.761860 -5.026181
-75.132360 -219.443665 -4.858641
-71.985169 -221.547569 -4.879584
-69.084322 -224.562097 -4.921469
-66.664251 -229.459855 -5.005238
-63.579458 -232.407356 -5.047123
-60.418389 -235.314089 -5.089008
-56.948176 -237.206226 -5.109950
-53.651468 -240.022871 -5.151835
-50.280220 -242.793997 -5.193720
